ply
format ascii 1.0
comment Created by CloudCompare v2.14.alpha (Sep 13 2025)
comment Created 2025-11-28T18:45:56
obj_info Generated by CloudCompare!
element vertex 1005
property float x
property float y
property float z
property uchar red
property uchar green
property uchar blue
property float scalar_label
end_header
-1.289250 0.985680 55.779610 16 20 0 2.000000 
-1.289640 0.984820 55.779659 16 21 0 2.000000 
-1.287860 0.978970 55.760151 16 19 2 2.000000 
-1.288960 0.977400 55.758961 11 14 0 2.000000 
-1.286260 0.977700 55.762329 12 15 0 2.000000 
-1.286120 0.976530 55.761459 12 15 0 2.000000 
-1.286230 0.977640 55.763561 7 17 0 2.000000 
-1.286090 0.976470 55.762718 10 13 0 2.000000 
-1.286370 0.975400 55.762890 13 17 1 2.000000 
-1.286530 0.976760 55.763649 10 15 0 2.000000 
-1.286580 0.977900 55.764561 15 18 2 2.000000 
-1.287080 0.977160 55.764580 13 17 0 2.000000 
-1.286670 0.975560 55.763931 13 17 1 2.000000 
-1.287000 0.975790 55.764969 11 16 1 2.000000 
-1.286860 0.978080 55.765598 15 18 1 2.000000 
-1.287170 0.977200 55.765732 15 18 0 2.000000 
-1.287220 0.975920 55.766041 11 15 2 2.000000 
-1.287350 0.974530 55.765121 11 17 0 2.000000 
-1.287000 0.978130 55.766750 15 18 2 2.000000 
-1.288290 0.979060 55.768429 14 18 0 2.000000 
-1.288900 0.978420 55.768372 18 21 1 2.000000 
-1.287490 0.978470 55.767681 15 18 1 2.000000 
-1.288370 0.976710 55.767792 14 17 0 2.000000 
-1.287250 0.977200 55.766880 14 17 0 2.000000 
-1.287660 0.976210 55.767010 14 17 0 2.000000 
-1.287520 0.977380 55.767960 14 16 0 2.000000 
-1.287540 0.974690 55.766239 12 17 2 2.000000 
-1.288060 0.975000 55.767170 14 18 6 2.000000 
-1.288010 0.973970 55.766220 14 20 0 2.000000 
-1.291790 0.982860 55.773361 14 17 0 2.000000 
-1.290630 0.981910 55.775249 15 19 0 2.000000 
-1.290520 0.981830 55.776520 15 19 0 2.000000 
-1.286260 0.975330 55.761730 10 13 0 2.000000 
-1.286970 0.973300 55.761990 12 15 2 2.000000 
-1.286080 0.973720 55.762230 12 15 0 2.000000 
-1.286300 0.973850 55.763302 9 13 0 2.000000 
-1.286670 0.973020 55.763401 11 14 0 2.000000 
-1.286990 0.974320 55.764118 10 15 0 2.000000 
-1.287080 0.973340 55.764359 13 17 0 2.000000 
-1.287460 0.973580 55.765331 14 19 0 2.000000 
-1.300290 1.044310 55.812740 53 47 18 2.000000 
-1.300010 1.044060 55.814121 66 65 32 2.000000 
-1.301090 1.043670 55.813839 66 65 31 2.000000 
-1.300320 1.044270 55.815159 62 64 31 2.000000 
-1.280130 1.023740 55.803280 32 35 18 2.000000 
-1.281510 1.022360 55.803131 25 29 11 2.000000 
-1.281700 1.022460 55.804241 25 29 11 2.000000 
-1.282250 1.021640 55.803070 20 25 8 2.000000 
-1.282880 1.022060 55.803928 20 23 6 2.000000 
-1.283130 1.020970 55.804089 16 20 3 2.000000 
-1.283930 1.024160 55.806629 24 29 17 2.000000 
-1.284560 1.023330 55.806610 21 25 12 2.000000 
-1.281120 1.024480 55.805141 33 38 18 2.000000 
-1.279350 1.024180 55.804630 35 39 14 2.000000 
-1.279960 1.024630 55.805489 35 40 18 2.000000 
-1.280320 1.023900 55.804359 33 37 19 2.000000 
-1.280740 1.023070 55.804409 31 34 17 2.000000 
-1.281420 1.023550 55.805271 29 33 16 2.000000 
-1.280620 1.025140 55.806351 35 40 20 2.000000 
-1.281310 1.024580 55.806221 34 37 19 2.000000 
-1.283180 1.022270 55.804970 21 25 10 2.000000 
-1.282220 1.022830 55.805141 25 28 11 2.000000 
-1.282200 1.024160 55.806011 29 33 17 2.000000 
-1.283130 1.023520 55.805840 25 29 19 2.000000 
-1.283540 1.022530 55.805969 19 24 11 2.000000 
-1.281500 1.025800 55.807049 39 43 24 2.000000 
-1.282140 1.026280 55.807911 40 44 25 2.000000 
-1.282440 1.025460 55.807999 34 39 21 2.000000 
-1.282660 1.026650 55.808842 40 43 23 2.000000 
-1.283130 1.025940 55.808819 34 38 19 2.000000 
-1.285140 1.023760 55.807461 25 30 14 2.000000 
-1.282860 1.024670 55.806870 27 34 19 2.000000 
-1.283330 1.024980 55.807800 30 35 20 2.000000 
-1.284090 1.024230 55.807739 25 34 18 2.000000 
-1.283680 1.025250 55.808800 29 34 18 2.000000 
-1.285390 1.023910 55.808540 19 26 9 2.000000 
-1.284290 1.024340 55.808819 24 30 15 2.000000 
-1.281810 1.024980 55.807152 31 37 21 2.000000 
-1.283790 1.021470 55.804951 19 25 6 2.000000 
-1.283430 1.019920 55.804249 21 23 0 2.000000 
-1.284010 1.020350 55.805149 19 25 5 2.000000 
-1.284480 1.022000 55.805771 16 22 4 2.000000 
-1.284590 1.020770 55.806042 18 24 4 2.000000 
-1.284970 1.019900 55.804909 44 46 14 2.000000 
-1.285520 1.020300 55.805801 29 35 13 2.000000 
-1.284730 1.022160 55.806839 15 21 2 2.000000 
-1.285190 1.022470 55.807770 21 27 8 2.000000 
-1.285410 1.021380 55.806789 14 19 0 2.000000 
-1.285970 1.021840 55.807678 15 21 0 2.000000 
-1.285830 1.022950 55.808632 17 23 5 2.000000 
-1.286650 1.022310 55.808498 11 21 0 2.000000 
-1.285990 1.020670 55.806770 33 41 14 2.000000 
-1.278030 1.022200 55.799629 23 27 12 2.000000 
-1.278620 1.021540 55.799580 21 24 10 2.000000 
-1.279770 1.022390 55.801369 22 25 9 2.000000 
-1.277650 1.022970 55.800770 27 30 15 2.000000 
-1.278280 1.022360 55.800671 23 27 12 2.000000 
-1.278170 1.023340 55.801659 29 33 18 2.000000 
-1.279000 1.021780 55.800579 20 24 9 2.000000 
-1.278920 1.022840 55.801529 26 29 14 2.000000 
-1.279820 1.021080 55.800449 18 23 6 2.000000 
-1.280370 1.020230 55.800461 20 22 1 2.000000 
-1.280270 1.021430 55.801418 20 23 6 2.000000 
-1.280900 1.020600 55.801392 18 20 2 2.000000 
-1.277010 1.022490 55.799911 26 29 15 2.000000 
-1.279050 1.020530 55.799671 21 27 7 2.000000 
-1.279050 1.024000 55.802399 30 34 18 2.000000 
-1.279800 1.023500 55.802238 28 31 14 2.000000 
-1.280100 1.022630 55.802368 26 29 12 2.000000 
-1.279300 1.024160 55.803440 32 35 18 2.000000 
-1.280430 1.022860 55.803371 29 33 16 2.000000 
-1.281010 1.021960 55.802200 23 26 9 2.000000 
-1.281840 1.021320 55.802071 21 24 8 2.000000 
-1.281590 1.019910 55.800152 21 26 3 2.000000 
-1.281560 1.019860 55.801338 19 22 1 2.000000 
-1.282300 1.020390 55.802158 17 21 2 2.000000 
-1.283130 1.019750 55.801991 30 36 14 2.000000 
-1.282660 1.020650 55.803162 18 22 4 2.000000 
-1.283130 1.019720 55.803211 25 32 12 2.000000 
-1.285970 1.024340 55.809429 18 25 8 2.000000 
-1.286270 1.023300 55.809601 13 23 0 2.000000 
-1.300140 1.043820 55.826149 65 68 33 2.000000 
-1.162020 1.029230 55.779640 37 35 17 2.000000 
-1.160550 1.035310 55.787739 36 45 20 2.000000 
-1.161300 1.034640 55.787682 32 33 19 2.000000 
-1.160530 1.036610 55.789688 40 36 29 2.000000 
-1.160750 1.035460 55.788780 31 35 18 2.000000 
-1.161600 1.034910 55.788651 26 31 10 2.000000 
-1.161100 1.035730 55.789742 31 32 23 2.000000 
-1.161960 1.034090 55.786400 28 28 15 2.000000 
-1.162620 1.034650 55.787189 24 26 13 2.000000 
-1.164500 1.031220 55.786331 21 24 9 2.000000 
-1.162730 1.034730 55.788300 16 19 5 2.000000 
-1.162650 1.033340 55.787571 22 25 11 2.000000 
-1.162150 1.035360 55.789471 26 29 14 2.000000 
-1.162980 1.034880 55.789299 21 24 7 2.000000 
-1.162700 1.033310 55.788719 19 23 9 2.000000 
-1.163370 1.033870 55.789459 18 25 9 2.000000 
-1.163420 1.032700 55.787441 21 24 10 2.000000 
-1.163830 1.033020 55.788368 21 25 10 2.000000 
-1.164610 1.031290 55.787441 16 22 7 2.000000 
-1.164970 1.031560 55.788410 13 27 9 2.000000 
-1.164140 1.033280 55.789371 14 25 8 2.000000 
-1.163830 1.031850 55.788719 17 24 10 2.000000 
-1.164550 1.032460 55.789429 12 25 7 2.000000 
-1.165190 1.031740 55.789410 16 25 8 2.000000 
-1.165380 1.030710 55.787350 25 28 14 2.000000 
-1.165550 1.030780 55.788429 16 25 8 2.000000 
-1.166070 1.030100 55.787258 21 25 10 2.000000 
-1.166510 1.030440 55.788151 18 21 6 2.000000 
-1.166760 1.030660 55.789150 20 20 7 2.000000 
-1.165740 1.030940 55.789459 20 21 7 2.000000 
-1.166490 1.029220 55.787350 20 23 8 2.000000 
-1.167170 1.028500 55.787289 20 23 9 2.000000 
-1.166840 1.029480 55.788311 19 22 7 2.000000 
-1.167480 1.028770 55.788300 21 24 10 2.000000 
-1.168200 1.028180 55.788170 24 27 13 2.000000 
-1.168860 1.028740 55.788952 24 27 12 2.000000 
-1.167090 1.029640 55.789322 22 26 11 2.000000 
-1.167970 1.029160 55.789150 25 28 14 2.000000 
-1.160440 1.033980 55.785858 46 36 19 2.000000 
-1.161080 1.034510 55.786610 39 38 25 2.000000 
-1.161820 1.029060 55.780941 25 24 8 2.000000 
-1.161740 1.030180 55.781849 25 25 10 2.000000 
-1.160800 1.030550 55.782051 37 35 19 2.000000 
-1.162540 1.029620 55.781681 22 23 13 2.000000 
-1.160990 1.029590 55.781109 35 34 15 2.000000 
-1.160690 1.031750 55.782928 35 35 19 2.000000 
-1.160580 1.032950 55.783760 41 46 27 2.000000 
-1.161050 1.032010 55.783859 25 31 14 2.000000 
-1.161520 1.032380 55.784752 27 28 12 2.000000 
-1.161540 1.031190 55.782761 26 27 15 2.000000 
-1.162020 1.030420 55.782822 22 24 15 2.000000 
-1.162870 1.029920 55.782650 20 22 14 2.000000 
-1.163400 1.030340 55.783508 21 24 10 2.000000 
-1.162930 1.031140 55.784599 18 21 7 2.000000 
-1.163620 1.030530 55.784512 20 23 8 2.000000 
-1.162070 1.031620 55.783619 22 24 16 2.000000 
-1.162150 1.030520 55.783890 20 23 14 2.000000 
-1.162120 1.031640 55.784729 24 23 11 2.000000 
-1.161710 1.027700 55.780251 31 27 20 2.000000 
-1.162350 1.028240 55.780991 23 21 13 2.000000 
-1.163230 1.026560 55.779991 29 25 9 2.000000 
-1.162460 1.027150 55.780121 28 24 14 2.000000 
-1.163090 1.028880 55.781700 21 23 14 2.000000 
-1.163290 1.027840 55.781940 18 22 2 2.000000 
-1.164030 1.027230 55.781849 22 24 9 2.000000 
-1.162790 1.027440 55.781090 23 23 12 2.000000 
-1.163280 1.026590 55.781139 26 26 10 2.000000 
-1.164690 1.026540 55.781792 21 23 8 2.000000 
-1.165000 1.025600 55.781960 20 18 2 2.000000 
-1.164090 1.026030 55.781010 25 22 9 2.000000 
-1.164670 1.025370 55.780998 21 18 1 2.000000 
-1.163510 1.029200 55.782631 19 22 11 2.000000 
-1.163780 1.029380 55.783630 21 24 10 2.000000 
-1.164060 1.029620 55.784641 21 24 10 2.000000 
-1.164110 1.028480 55.783760 24 27 13 2.000000 
-1.164780 1.029040 55.784538 24 27 13 2.000000 
-1.164800 1.027900 55.782520 27 30 17 2.000000 
-1.165300 1.027040 55.782612 22 25 9 2.000000 
-1.165220 1.028210 55.783451 26 29 15 2.000000 
-1.165850 1.027500 55.783428 19 23 6 2.000000 
-1.165630 1.028530 55.784382 24 27 12 2.000000 
-1.166320 1.027870 55.784321 20 24 7 2.000000 
-1.166130 1.026540 55.783600 16 19 0 2.000000 
-1.166680 1.026990 55.784409 16 19 0 2.000000 
-1.163750 1.028210 55.782829 22 25 11 2.000000 
-1.165850 1.026300 55.782631 21 23 5 2.000000 
-1.161240 1.033480 55.785702 30 24 10 2.000000 
-1.161930 1.032760 55.785641 22 20 8 2.000000 
-1.160690 1.033020 55.784882 36 35 18 2.000000 
-1.162400 1.033130 55.786530 23 24 11 2.000000 
-1.162370 1.031850 55.785770 21 22 9 2.000000 
-1.163480 1.031590 55.785419 17 20 6 2.000000 
-1.164140 1.030950 55.785400 18 22 7 2.000000 
-1.162840 1.032220 55.786659 20 23 9 2.000000 
-1.163640 1.031720 55.786491 16 20 5 2.000000 
-1.163670 1.031720 55.787640 18 23 8 2.000000 
-1.164660 1.030130 55.785419 21 24 10 2.000000 
-1.165350 1.029520 55.785358 23 26 11 2.000000 
-1.165130 1.030500 55.786308 23 26 12 2.000000 
-1.165520 1.029650 55.786442 24 27 13 2.000000 
-1.165820 1.028690 55.785419 23 26 11 2.000000 
-1.166540 1.028050 55.785320 21 24 10 2.000000 
-1.167290 1.027500 55.785229 19 23 9 2.000000 
-1.166150 1.028930 55.786419 23 26 11 2.000000 
-1.166900 1.028320 55.786289 21 24 10 2.000000 
-1.167510 1.027630 55.786270 21 24 10 2.000000 
-1.167620 1.027700 55.787392 21 24 10 2.000000 
-1.160610 1.037860 55.791641 32 35 16 2.000000 
-1.160940 1.036930 55.790619 34 33 24 2.000000 
-1.161570 1.036100 55.790642 27 28 25 2.000000 
-1.161160 1.037110 55.791660 23 28 13 2.000000 
-1.162150 1.036580 55.791451 23 26 20 2.000000 
-1.160440 1.038860 55.793739 32 31 15 2.000000 
-1.160850 1.039180 55.794670 31 31 17 2.000000 
-1.161990 1.037750 55.793522 32 28 16 2.000000 
-1.162400 1.036790 55.792461 23 27 12 2.000000 
-1.162450 1.036810 55.793610 24 27 13 2.000000 
-1.162680 1.037000 55.794609 25 23 11 2.000000 
-1.160610 1.037830 55.792831 33 35 17 2.000000 
-1.160940 1.038120 55.793758 32 28 16 2.000000 
-1.161660 1.037510 55.792511 22 27 11 2.000000 
-1.160410 1.040970 55.798931 27 31 16 2.000000 
-1.161270 1.039500 55.795559 28 31 16 2.000000 
-1.160190 1.039730 55.795910 29 32 18 2.000000 
-1.161300 1.038350 55.795910 26 26 13 2.000000 
-1.161350 1.039550 55.796669 24 27 12 2.000000 
-1.160330 1.039830 55.796982 26 29 15 2.000000 
-1.161770 1.038720 55.796799 22 24 10 2.000000 
-1.161880 1.037580 55.795891 25 22 10 2.000000 
-1.162950 1.037180 55.795650 23 18 6 2.000000 
-1.162620 1.038220 55.796631 22 19 7 2.000000 
-1.163030 1.037230 55.796761 21 17 5 2.000000 
-1.159720 1.039360 55.795010 31 33 19 2.000000 
-1.160990 1.038140 55.794910 31 28 16 2.000000 
-1.161630 1.037420 55.794891 29 25 13 2.000000 
-1.161990 1.038910 55.797798 19 22 7 2.000000 
-1.160350 1.039830 55.798130 23 26 11 2.000000 
-1.161270 1.039440 55.797932 21 24 10 2.000000 
-1.162340 1.039170 55.798771 17 20 5 2.000000 
-1.160680 1.040070 55.799099 24 25 11 2.000000 
-1.161210 1.039350 55.799122 21 21 8 2.000000 
-1.162900 1.038460 55.797600 19 20 6 2.000000 
-1.163340 1.037440 55.797729 16 19 5 2.000000 
-1.163040 1.038560 55.798679 16 19 5 2.000000 
-1.163390 1.037460 55.798882 15 18 3 2.000000 
-1.163420 1.035280 55.790192 19 20 8 2.000000 
-1.162350 1.035520 55.790539 22 24 17 2.000000 
-1.163890 1.034350 55.790321 13 23 7 2.000000 
-1.162900 1.035970 55.791359 22 25 12 2.000000 
-1.163500 1.035280 55.791340 20 23 8 2.000000 
-1.164190 1.034560 55.791290 18 21 6 2.000000 
-1.164390 1.033440 55.790371 13 23 7 2.000000 
-1.165270 1.033020 55.790169 19 23 7 2.000000 
-1.165660 1.032110 55.790298 22 20 8 2.000000 
-1.164630 1.033650 55.791409 24 23 10 2.000000 
-1.165440 1.033150 55.791248 26 22 10 2.000000 
-1.166210 1.032570 55.791161 26 22 10 2.000000 
-1.164500 1.034770 55.792290 16 19 5 2.000000 
-1.164630 1.034870 55.793362 17 20 6 2.000000 
-1.163090 1.036100 55.793591 22 25 11 2.000000 
-1.163470 1.036390 55.794521 20 22 8 2.000000 
-1.163970 1.035640 55.794571 18 20 6 2.000000 
-1.164690 1.034900 55.794510 16 19 5 2.000000 
-1.166400 1.032720 55.792198 21 23 10 2.000000 
-1.165880 1.033460 55.793331 18 21 7 2.000000 
-1.166700 1.032930 55.793201 19 23 7 2.000000 
-1.166210 1.033760 55.794289 12 23 2 2.000000 
-1.166840 1.033040 55.794281 17 24 4 2.000000 
-1.163030 1.036070 55.792439 21 24 10 2.000000 
-1.163370 1.035170 55.792568 19 22 7 2.000000 
-1.163450 1.035160 55.793720 20 23 8 2.000000 
-1.164770 1.033760 55.792488 16 19 5 2.000000 
-1.165520 1.033200 55.792358 25 23 10 2.000000 
-1.164940 1.033830 55.793571 16 19 5 2.000000 
-1.169130 1.030090 55.791969 22 24 16 2.000000 
-1.169710 1.029380 55.791962 18 20 11 2.000000 
-1.166980 1.030780 55.790230 24 21 9 2.000000 
-1.166040 1.031150 55.790470 24 19 7 2.000000 
-1.166370 1.031440 55.791401 23 23 10 2.000000 
-1.167120 1.030890 55.791302 22 25 11 2.000000 
-1.168580 1.029670 55.789970 25 28 14 2.000000 
-1.167530 1.030040 55.790211 25 28 14 2.000000 
-1.169080 1.028930 55.789989 22 25 11 2.000000 
-1.167840 1.030250 55.791210 23 27 14 2.000000 
-1.168940 1.029940 55.790901 24 26 17 2.000000 
-1.169270 1.029030 55.791061 22 24 14 2.000000 
-1.167140 1.032030 55.793289 20 23 7 2.000000 
-1.167950 1.031580 55.793129 23 26 11 2.000000 
-1.167390 1.032240 55.794289 24 27 10 2.000000 
-1.168140 1.031680 55.794201 25 28 12 2.000000 
-1.168580 1.030860 55.793110 23 25 14 2.000000 
-1.169300 1.030220 55.793011 21 23 13 2.000000 
-1.169910 1.029530 55.792992 17 19 11 2.000000 
-1.168750 1.030940 55.794182 23 27 12 2.000000 
-1.169460 1.030300 55.794090 20 22 11 2.000000 
-1.170100 1.029690 55.794029 18 20 10 2.000000 
-1.166790 1.031760 55.792320 21 25 11 2.000000 
-1.167450 1.031130 55.792271 22 25 12 2.000000 
-1.168140 1.030520 55.792210 24 25 15 2.000000 
-1.163640 1.036520 55.795589 18 18 5 2.000000 
-1.164410 1.035990 55.795460 14 16 2 2.000000 
-1.165240 1.035350 55.795330 15 18 5 2.000000 
-1.164830 1.036310 55.796391 15 16 7 2.000000 
-1.165490 1.035560 55.796371 15 16 6 2.000000 
-1.163890 1.036670 55.796589 18 17 5 2.000000 
-1.165460 1.034230 55.795609 12 19 5 2.000000 
-1.166120 1.033640 55.795521 13 21 3 2.000000 
-1.166650 1.032820 55.795570 14 25 4 2.000000 
-1.165790 1.034520 55.796539 15 19 5 2.000000 
-1.166180 1.033670 55.796669 14 21 6 2.000000 
-1.166780 1.032920 55.796650 16 25 6 2.000000 
-1.164990 1.033850 55.794720 15 19 5 2.000000 
-1.164220 1.036970 55.797562 15 18 4 2.000000 
-1.164690 1.036140 55.797649 15 18 3 2.000000 
-1.165790 1.035770 55.797340 15 16 7 2.000000 
-1.164380 1.037040 55.798641 15 18 3 2.000000 
-1.164830 1.036240 55.798729 15 18 3 2.000000 
-1.165790 1.035740 55.798519 14 16 4 2.000000 
-1.166090 1.034730 55.797539 15 17 6 2.000000 
-1.167340 1.033370 55.797470 16 24 7 2.000000 
-1.166540 1.033930 55.797600 15 20 6 2.000000 
-1.166290 1.034890 55.798580 14 15 6 2.000000 
-1.166920 1.034220 55.798519 16 18 7 2.000000 
-1.167340 1.033340 55.798649 17 23 7 2.000000 
-1.167340 1.032150 55.795521 27 31 12 2.000000 
-1.168080 1.031600 55.795391 26 29 12 2.000000 
-1.167360 1.032150 55.796669 17 29 7 2.000000 
-1.168300 1.031780 55.796429 22 26 7 2.000000 
-1.170510 1.030010 55.794960 16 19 7 2.000000 
-1.168860 1.031010 55.795300 22 26 10 2.000000 
-1.169570 1.030380 55.795200 19 22 7 2.000000 
-1.169990 1.030690 55.796131 17 21 9 2.000000 
-1.170760 1.030160 55.796001 15 19 7 2.000000 
-1.168990 1.031120 55.796371 20 23 6 2.000000 
-1.168770 1.032150 55.797321 19 26 8 2.000000 
-1.167470 1.032220 55.797741 17 28 9 2.000000 
-1.168970 1.032310 55.798359 19 22 5 2.000000 
-1.167910 1.032570 55.798672 20 23 6 2.000000 
-1.169430 1.031460 55.797260 17 22 10 2.000000 
-1.169820 1.031810 55.798191 16 20 6 2.000000 
-1.170320 1.030990 55.797100 16 21 9 2.000000 
-1.170730 1.030110 55.797192 15 19 7 2.000000 
-1.170340 1.030980 55.798248 16 20 8 2.000000 
-1.169900 1.031800 55.799339 14 17 0 2.000000 
-1.170730 1.030070 55.798382 15 19 7 2.000000 
-1.170320 1.030920 55.799431 12 17 5 2.000000 
-1.170900 1.030200 55.799419 12 17 5 2.000000 
-1.166750 1.042510 55.818218 20 23 7 2.000000 
-1.167080 1.042800 55.819180 21 24 7 2.000000 
-1.166360 1.043330 55.819271 22 26 7 2.000000 
-1.167960 1.040990 55.817070 18 21 5 2.000000 
-1.168520 1.041440 55.817921 18 21 6 2.000000 
-1.167390 1.041790 55.818199 19 22 7 2.000000 
-1.167660 1.042030 55.819199 20 24 7 2.000000 
-1.168600 1.041490 55.819038 18 24 2 2.000000 
-1.168710 1.040330 55.817009 17 20 3 2.000000 
-1.169040 1.040620 55.817940 15 25 4 2.000000 
-1.169980 1.038890 55.816971 17 22 3 2.000000 
-1.169430 1.039710 55.818069 14 23 2 2.000000 
-1.170170 1.039050 55.818008 16 24 4 2.000000 
-1.169200 1.040690 55.819050 17 27 5 2.000000 
-1.170010 1.040190 55.818890 15 26 5 2.000000 
-1.170500 1.039280 55.818981 16 26 5 2.000000 
-1.170770 1.038250 55.818031 23 26 8 2.000000 
-1.171080 1.038510 55.819000 23 29 9 2.000000 
-1.171240 1.037440 55.819241 30 33 15 2.000000 
-1.174750 1.034270 55.815430 26 40 18 2.000000 
-1.173950 1.034850 55.816711 28 42 20 2.000000 
-1.175280 1.034750 55.816250 25 41 19 2.000000 
-1.176910 1.036110 55.817631 30 35 20 2.000000 
-1.177490 1.036590 55.818409 28 32 18 2.000000 
-1.172570 1.036090 55.817970 30 36 16 2.000000 
-1.173260 1.035480 55.817921 27 38 16 2.000000 
-1.172040 1.036890 55.819111 36 39 21 2.000000 
-1.173810 1.035940 55.818741 30 35 19 2.000000 
-1.172840 1.036280 55.818981 25 31 11 2.000000 
-1.176080 1.035390 55.816959 31 36 22 2.000000 
-1.174200 1.035010 55.817719 29 39 19 2.000000 
-1.174890 1.035590 55.818459 31 36 21 2.000000 
-1.160680 1.042540 55.801849 26 30 16 2.000000 
-1.160820 1.042650 55.802921 25 28 14 2.000000 
-1.160710 1.042510 55.804180 20 24 9 2.000000 
-1.161180 1.041520 55.804310 16 20 6 2.000000 
-1.162310 1.040280 55.801941 16 20 6 2.000000 
-1.161810 1.040940 55.803070 18 23 8 2.000000 
-1.162620 1.040490 55.802898 15 19 5 2.000000 
-1.162150 1.041230 55.804039 18 22 8 2.000000 
-1.163310 1.039900 55.804001 13 17 3 2.000000 
-1.162620 1.040460 55.804089 15 19 5 2.000000 
-1.163580 1.038920 55.803020 11 15 0 2.000000 
-1.164470 1.038340 55.802891 15 18 4 2.000000 
-1.164160 1.039400 55.803841 16 19 5 2.000000 
-1.164410 1.038250 55.804111 16 19 5 2.000000 
-1.160290 1.040830 55.800152 26 29 15 2.000000 
-1.160630 1.041130 55.801121 22 26 12 2.000000 
-1.160960 1.041360 55.802120 23 27 13 2.000000 
-1.160930 1.041310 55.803268 22 26 12 2.000000 
-1.161100 1.040440 55.799992 22 25 11 2.000000 
-1.161540 1.039640 55.800079 20 24 10 2.000000 
-1.162680 1.039460 55.799728 18 22 8 2.000000 
-1.161260 1.040520 55.801060 20 24 10 2.000000 
-1.161900 1.039910 55.801048 18 23 8 2.000000 
-1.162560 1.039320 55.800961 17 22 7 2.000000 
-1.162670 1.039400 55.802071 14 18 4 2.000000 
-1.163310 1.038740 55.799721 15 18 3 2.000000 
-1.163310 1.037350 55.800098 15 18 3 2.000000 
-1.163120 1.038520 55.801010 15 18 4 2.000000 
-1.163580 1.037590 55.801102 13 16 2 2.000000 
-1.164080 1.037990 55.801960 12 16 2 2.000000 
-1.161320 1.040540 55.802219 19 23 9 2.000000 
-1.162840 1.039530 55.803108 12 16 2 2.000000 
-1.163060 1.038440 55.802200 12 17 2 2.000000 
-1.161120 1.042820 55.805111 19 23 8 2.000000 
-1.161870 1.042100 55.805061 15 23 7 2.000000 
-1.161460 1.043120 55.806042 24 28 13 2.000000 
-1.161760 1.043330 55.807041 20 22 11 2.000000 
-1.162250 1.042400 55.805981 17 20 9 2.000000 
-1.162500 1.042610 55.806992 17 19 9 2.000000 
-1.162470 1.042550 55.808170 16 21 9 2.000000 
-1.162580 1.042620 55.809292 13 22 8 2.000000 
-1.162280 1.041330 55.805111 17 23 8 2.000000 
-1.163000 1.040800 55.805019 16 19 5 2.000000 
-1.163610 1.040110 55.805000 16 19 5 2.000000 
-1.162810 1.041760 55.805969 17 19 8 2.000000 
-1.162920 1.041840 55.807079 16 19 7 2.000000 
-1.163440 1.041150 55.805908 16 19 6 2.000000 
-1.164080 1.040510 55.807049 15 19 5 2.000000 
-1.163690 1.040160 55.806122 16 19 5 2.000000 
-1.164330 1.039480 55.804909 16 19 5 2.000000 
-1.164600 1.038350 55.805149 16 19 5 2.000000 
-1.164470 1.039580 55.805988 16 19 5 2.000000 
-1.164880 1.038590 55.806110 16 19 5 2.000000 
-1.162810 1.041700 55.808300 13 21 7 2.000000 
-1.163300 1.040980 55.807171 14 19 7 2.000000 
-1.164440 1.040770 55.808010 10 19 6 2.000000 
-1.163440 1.041090 55.808250 12 20 7 2.000000 
-1.163160 1.041960 55.809269 12 21 7 2.000000 
-1.163740 1.041300 55.809250 10 20 6 2.000000 
-1.164460 1.040770 55.809120 10 19 5 2.000000 
-1.164520 1.039600 55.807140 16 19 5 2.000000 
-1.164690 1.039730 55.808182 16 19 5 2.000000 
-1.165240 1.038860 55.807079 16 19 5 2.000000 
-1.165790 1.039310 55.807941 14 17 2 2.000000 
-1.165180 1.040130 55.809071 12 17 2 2.000000 
-1.166010 1.039490 55.808941 13 16 0 2.000000 
-1.164960 1.037430 55.802979 15 18 0 2.000000 
-1.165100 1.037530 55.804050 15 18 3 2.000000 
-1.165760 1.036890 55.804001 15 18 3 2.000000 
-1.167000 1.035370 55.804001 16 18 7 2.000000 
-1.171530 1.030710 55.801350 15 18 5 2.000000 
-1.170200 1.032000 55.802639 16 19 5 2.000000 
-1.171000 1.031390 55.802509 14 18 3 2.000000 
-1.171640 1.030780 55.802460 16 19 5 2.000000 
-1.170840 1.031250 55.803768 13 16 2 2.000000 
-1.171720 1.030830 55.803570 16 19 5 2.000000 
-1.164330 1.036960 55.799858 14 17 2 2.000000 
-1.164960 1.036350 55.799809 13 16 2 2.000000 
-1.164600 1.037190 55.800819 13 16 2 2.000000 
-1.165650 1.035570 55.799789 13 16 2 2.000000 
-1.164910 1.036260 55.800991 13 16 2 2.000000 
-1.164660 1.037220 55.801979 13 16 1 2.000000 
-1.165100 1.036420 55.802029 15 17 0 2.000000 
-1.165570 1.035520 55.800968 13 16 0 2.000000 
-1.165730 1.035590 55.802052 14 18 0 2.000000 
-1.166510 1.035070 55.799622 13 15 5 2.000000 
-1.167000 1.034270 55.799641 15 18 2 2.000000 
-1.167470 1.033450 55.799728 18 22 5 2.000000 
-1.166420 1.034960 55.800838 13 16 0 2.000000 
-1.166750 1.034050 55.800968 16 20 3 2.000000 
-1.165460 1.036680 55.803001 15 18 0 2.000000 
-1.166010 1.035830 55.803051 15 18 3 2.000000 
-1.166230 1.035960 55.804089 15 17 3 2.000000 
-1.166230 1.034740 55.802139 15 18 1 2.000000 
-1.166500 1.034980 55.803101 16 19 5 2.000000 
-1.166860 1.034070 55.802078 16 19 5 2.000000 
-1.166950 1.034120 55.803200 18 20 8 2.000000 
-1.167280 1.034410 55.804161 19 21 10 2.000000 
-1.168270 1.032830 55.799599 20 23 6 2.000000 
-1.167750 1.033630 55.800732 20 23 6 2.000000 
-1.168380 1.032910 55.800709 21 24 7 2.000000 
-1.168850 1.032170 55.799580 17 21 4 2.000000 
-1.168520 1.033010 55.801788 21 24 7 2.000000 
-1.167690 1.033540 55.801960 21 24 7 2.000000 
-1.168710 1.032000 55.800838 19 22 5 2.000000 
-1.169070 1.032270 55.801811 20 23 6 2.000000 
-1.169980 1.031850 55.800461 16 19 2 2.000000 
-1.170950 1.030230 55.800571 11 15 3 2.000000 
-1.170120 1.031950 55.801529 19 22 5 2.000000 
-1.170070 1.030650 55.800770 15 18 0 2.000000 
-1.170560 1.031050 55.801620 16 19 3 2.000000 
-1.167770 1.033590 55.803070 20 22 10 2.000000 
-1.168630 1.033090 55.802860 20 23 6 2.000000 
-1.169290 1.032450 55.802849 20 23 7 2.000000 
-1.167770 1.033560 55.804218 20 22 14 2.000000 
-1.168550 1.032980 55.804131 22 27 11 2.000000 
-1.169430 1.032560 55.803921 20 23 8 2.000000 
-1.170010 1.031780 55.803940 16 19 4 2.000000 
-1.165150 1.037550 55.805168 16 19 5 2.000000 
-1.165760 1.036860 55.805149 15 17 5 2.000000 
-1.166390 1.036090 55.805130 15 16 6 2.000000 
-1.165590 1.037900 55.806099 16 19 5 2.000000 
-1.165900 1.036960 55.806259 16 19 5 2.000000 
-1.166720 1.036380 55.806091 14 16 6 2.000000 
-1.167440 1.035720 55.804890 16 18 9 2.000000 
-1.167580 1.034630 55.805130 16 21 8 2.000000 
-1.167520 1.035770 55.806000 14 21 3 2.000000 
-1.167690 1.034700 55.806240 17 23 5 2.000000 
-1.166120 1.038290 55.808102 15 18 0 2.000000 
-1.166480 1.037410 55.808231 15 18 0 2.000000 
-1.165790 1.038060 55.807140 16 19 5 2.000000 
-1.166340 1.037310 55.807152 15 18 1 2.000000 
-1.166890 1.036460 55.807171 16 19 1 2.000000 
-1.166450 1.038590 55.809029 13 16 0 2.000000 
-1.166810 1.037710 55.809200 15 18 2 2.000000 
-1.167380 1.036820 55.809212 15 18 3 2.000000 
-1.167080 1.036610 55.808250 15 18 2 2.000000 
-1.167250 1.035470 55.807331 15 20 2 2.000000 
-1.167720 1.034700 55.807388 20 23 6 2.000000 
-1.167960 1.036050 55.809231 16 18 6 2.000000 
-1.167470 1.035650 55.808369 16 19 4 2.000000 
-1.168020 1.034910 55.808392 19 22 5 2.000000 
-1.168350 1.035200 55.809319 21 22 8 2.000000 
-1.169040 1.033380 55.804981 21 26 8 2.000000 
-1.169710 1.032740 55.804932 16 19 5 2.000000 
-1.168270 1.033930 55.806259 21 27 9 2.000000 
-1.169290 1.033530 55.805981 20 24 7 2.000000 
-1.169790 1.032790 55.806042 16 19 2 2.000000 
-1.170370 1.033270 55.806862 19 19 3 2.000000 
-1.170560 1.032240 55.804760 14 17 2 2.000000 
-1.171890 1.030910 55.804649 16 19 5 2.000000 
-1.172410 1.031300 55.806648 21 24 7 2.000000 
-1.170640 1.032290 55.805870 16 19 5 2.000000 
-1.171220 1.031510 55.805889 17 21 6 2.000000 
-1.171770 1.030770 55.805908 19 22 7 2.000000 
-1.170030 1.034140 55.807880 22 22 7 2.000000 
-1.170450 1.033320 55.807968 21 19 3 2.000000 
-1.169540 1.033740 55.807018 23 25 8 2.000000 
-1.168430 1.034060 55.807301 25 28 11 2.000000 
-1.170250 1.034330 55.808922 21 22 7 2.000000 
-1.168790 1.034320 55.808262 24 24 9 2.000000 
-1.170310 1.033150 55.809231 16 19 5 2.000000 
-1.173020 1.031810 55.807468 22 25 7 2.000000 
-1.171770 1.031940 55.807899 21 24 7 2.000000 
-1.170640 1.032250 55.807060 19 20 4 2.000000 
-1.171000 1.032520 55.807991 18 19 5 2.000000 
-1.171500 1.031700 55.806889 21 24 9 2.000000 
-1.173100 1.031860 55.808578 22 25 7 2.000000 
-1.172080 1.032150 55.808861 21 25 10 2.000000 
-1.171030 1.032520 55.809139 18 21 6 2.000000 
-1.168050 1.033800 55.805222 20 27 8 2.000000 
-1.170670 1.031060 55.805031 13 16 2 2.000000 
-1.162690 1.042650 55.810398 12 23 8 2.000000 
-1.162360 1.042350 55.811729 15 21 7 2.000000 
-1.162050 1.042020 55.813099 19 22 7 2.000000 
-1.162190 1.042120 55.814178 17 21 5 2.000000 
-1.164160 1.041670 55.810139 14 19 5 2.000000 
-1.164910 1.041110 55.810051 13 18 3 2.000000 
-1.165240 1.042550 55.811821 15 19 6 2.000000 
-1.163520 1.042250 55.811352 15 19 5 2.000000 
-1.164740 1.042150 55.810959 15 19 5 2.000000 
-1.165240 1.041410 55.810982 13 18 3 2.000000 
-1.165460 1.040370 55.810032 12 16 2 2.000000 
-1.165620 1.040450 55.811111 11 15 5 2.000000 
-1.163470 1.042230 55.810242 11 22 7 2.000000 
-1.165920 1.039380 55.810162 12 16 2 2.000000 
-1.166030 1.039460 55.811272 11 15 6 2.000000 
-1.165120 1.042410 55.813042 14 18 9 2.000000 
-1.165430 1.041510 55.812061 13 18 7 2.000000 
-1.165350 1.041450 55.813240 12 17 8 2.000000 
-1.165040 1.042300 55.814259 15 18 2 2.000000 
-1.165570 1.041580 55.814281 13 16 10 2.000000 
-1.165950 1.040740 55.812080 11 15 6 2.000000 
-1.166040 1.040790 55.813190 11 14 7 2.000000 
-1.166170 1.039560 55.812351 11 14 6 2.000000 
-1.166340 1.041000 55.814190 14 15 7 2.000000 
-1.166340 1.039640 55.813431 11 14 7 2.000000 
-1.166670 1.039930 55.814350 15 16 6 2.000000 
-1.163410 1.042110 55.812611 15 19 5 2.000000 
-1.163440 1.042110 55.813721 16 19 1 2.000000 
-1.163020 1.044170 55.816769 29 26 7 2.000000 
-1.163020 1.042810 55.816002 20 20 1 2.000000 
-1.163650 1.043350 55.816780 23 22 3 2.000000 
-1.162410 1.042310 55.815182 19 22 4 2.000000 
-1.162000 1.044670 55.819271 31 36 14 2.000000 
-1.162770 1.043960 55.818062 24 28 6 2.000000 
-1.163760 1.043420 55.817860 21 25 5 2.000000 
-1.164120 1.043690 55.818821 22 26 5 2.000000 
-1.162690 1.043840 55.819290 24 29 5 2.000000 
-1.165340 1.042560 55.815231 16 19 2 2.000000 
-1.163850 1.042420 55.814651 16 19 1 2.000000 
-1.164290 1.042770 55.815540 16 20 0 2.000000 
-1.165400 1.041390 55.815540 14 17 6 2.000000 
-1.164650 1.043090 55.816509 18 21 5 2.000000 
-1.165540 1.042720 55.816311 16 19 5 2.000000 
-1.165790 1.041730 55.816471 16 19 5 2.000000 
-1.166670 1.041290 55.815159 15 16 6 2.000000 
-1.167110 1.040270 55.815281 16 18 6 2.000000 
-1.166640 1.041230 55.816311 19 21 7 2.000000 
-1.167440 1.040560 55.816250 18 21 7 2.000000 
-1.164570 1.042980 55.817730 20 23 5 2.000000 
-1.165590 1.042690 55.817421 19 22 6 2.000000 
-1.166420 1.042270 55.817249 18 21 6 2.000000 
-1.164790 1.043160 55.818729 22 25 6 2.000000 
-1.165920 1.042980 55.818378 21 24 6 2.000000 
-1.167000 1.041500 55.817268 18 21 7 2.000000 
-1.166890 1.038900 55.811111 13 14 5 2.000000 
-1.166590 1.038690 55.810139 13 16 2 2.000000 
-1.166750 1.037620 55.810379 13 16 3 2.000000 
-1.167580 1.036980 55.810249 15 16 6 2.000000 
-1.166780 1.037620 55.811531 12 15 5 2.000000 
-1.167660 1.037030 55.811359 14 15 7 2.000000 
-1.167960 1.036020 55.810421 15 16 7 2.000000 
-1.168600 1.035360 55.810360 17 19 9 2.000000 
-1.168130 1.036150 55.811459 15 19 5 2.000000 
-1.168850 1.035570 55.811359 19 25 6 2.000000 
-1.167300 1.039220 55.812038 10 12 6 2.000000 
-1.167470 1.039350 55.813110 14 15 7 2.000000 
-1.167690 1.039530 55.814110 13 15 5 2.000000 
-1.167470 1.038120 55.813419 13 16 6 2.000000 
-1.168380 1.037620 55.813259 14 18 6 2.000000 
-1.168130 1.038680 55.814209 12 14 2 2.000000 
-1.168960 1.038100 55.814079 13 17 3 2.000000 
-1.168760 1.036650 55.813389 16 20 6 2.000000 
-1.169150 1.036950 55.814308 17 22 6 2.000000 
-1.169450 1.036040 55.813332 21 27 8 2.000000 
-1.167080 1.037830 55.812500 14 18 9 2.000000 
-1.167820 1.037160 55.812439 13 18 7 2.000000 
-1.168490 1.036420 55.812420 14 19 6 2.000000 
-1.169340 1.035970 55.812260 20 26 7 2.000000 
-1.173320 1.032040 55.809620 23 27 8 2.000000 
-1.173870 1.032500 55.810440 25 29 7 2.000000 
-1.172850 1.032780 55.810719 27 31 11 2.000000 
-1.173290 1.033130 55.811649 31 36 14 2.000000 
-1.170200 1.034240 55.810101 22 25 10 2.000000 
-1.168850 1.034350 55.809410 27 26 10 2.000000 
-1.169070 1.034530 55.810421 25 28 14 2.000000 
-1.170110 1.032930 55.810532 20 23 9 2.000000 
-1.170450 1.034400 55.811138 23 26 10 2.000000 
-1.169450 1.034820 55.811340 24 30 10 2.000000 
-1.170810 1.033520 55.811272 23 26 9 2.000000 
-1.171300 1.032750 55.810139 22 25 8 2.000000 
-1.172380 1.032410 55.809818 24 27 10 2.000000 
-1.171800 1.033150 55.810989 26 29 11 2.000000 
-1.171440 1.034060 55.812012 26 29 10 2.000000 
-1.170230 1.035460 55.813202 26 32 10 2.000000 
-1.170310 1.035510 55.814308 27 34 11 2.000000 
-1.171550 1.034130 55.813129 27 32 8 2.000000 
-1.171690 1.034230 55.814201 31 38 19 2.000000 
-1.173650 1.033390 55.812611 34 29 13 2.000000 
-1.172210 1.033470 55.811920 29 33 12 2.000000 
-1.172740 1.033900 55.812778 33 30 13 2.000000 
-1.172930 1.034050 55.813820 38 32 16 2.000000 
-1.173870 1.033580 55.813610 36 32 16 2.000000 
-1.169780 1.035110 55.812309 26 32 11 2.000000 
-1.170500 1.034420 55.812248 27 32 10 2.000000 
-1.170440 1.034340 55.813480 27 34 8 2.000000 
-1.168050 1.039800 55.815079 15 17 3 2.000000 
-1.168430 1.038940 55.815170 14 17 2 2.000000 
-1.169310 1.038360 55.815041 15 18 0 2.000000 
-1.168380 1.040090 55.816051 17 20 4 2.000000 
-1.168790 1.039210 55.816139 16 19 2 2.000000 
-1.169530 1.038540 55.816040 17 20 2 2.000000 
-1.169510 1.037210 55.815281 18 24 6 2.000000 
-1.169590 1.036150 55.814411 22 29 9 2.000000 
-1.170000 1.036470 55.815338 22 29 10 2.000000 
-1.170530 1.036890 55.816151 31 29 12 2.000000 
-1.169530 1.037210 55.816429 19 23 4 2.000000 
-1.168870 1.039260 55.817249 16 20 2 2.000000 
-1.169810 1.037440 55.817429 21 24 6 2.000000 
-1.170890 1.037160 55.817120 27 30 12 2.000000 
-1.171020 1.037260 55.818199 28 32 13 2.000000 
-1.172350 1.034740 55.814991 31 38 19 2.000000 
-1.170860 1.034710 55.814369 28 35 11 2.000000 
-1.171520 1.035220 55.815151 34 38 19 2.000000 
-1.170420 1.035530 55.815430 31 34 15 2.000000 
-1.172050 1.035700 55.815971 35 39 20 2.000000 
-1.171050 1.036070 55.816212 33 35 17 2.000000 
-1.172870 1.035220 55.815800 33 41 21 2.000000 
-1.173090 1.034130 55.814892 28 40 19 2.000000 
-1.174390 1.034000 55.814468 33 37 19 2.000000 
-1.173730 1.034660 55.815670 29 41 19 2.000000 
-1.171380 1.036360 55.817169 35 37 19 2.000000 
-1.172240 1.035800 55.817051 35 40 21 2.000000 
-1.173040 1.035300 55.816879 31 41 20 2.000000 
-1.171630 1.036510 55.818180 33 36 18 2.000000 
-1.175470 1.047260 55.827740 30 33 15 2.000000 
-1.176910 1.048490 55.829201 42 47 22 2.000000 
-1.174370 1.048940 55.828789 43 41 24 2.000000 
-1.176140 1.047820 55.828491 34 38 15 2.000000 
-1.174670 1.047890 55.828991 32 37 13 2.000000 
-1.183860 1.041910 55.824001 20 21 10 2.000000 
-1.181380 1.041070 55.823940 28 34 10 2.000000 
-1.182730 1.040950 55.823521 21 24 10 2.000000 
-1.178950 1.043940 55.826279 47 47 21 2.000000 
-1.178980 1.047780 55.828678 49 56 23 2.000000 
-1.176660 1.045790 55.827740 38 43 20 2.000000 
-1.177820 1.047980 55.829029 49 54 26 2.000000 
-1.177600 1.046570 55.828339 46 52 21 2.000000 
-1.176710 1.046990 55.828541 40 45 20 2.000000 
-1.179170 1.046600 55.827808 43 50 13 2.000000 
-1.178980 1.045160 55.827122 41 45 17 2.000000 
-1.177620 1.045290 55.827541 44 49 20 2.000000 
-1.180440 1.042690 55.824982 59 54 29 2.000000 
-1.180140 1.043700 55.825970 53 50 26 2.000000 
-1.182510 1.042040 55.824429 25 30 15 2.000000 
-1.181490 1.042430 55.824669 30 39 16 2.000000 
-1.171690 1.044050 55.824169 30 29 1 2.000000 
-1.165470 1.044770 55.822651 34 38 19 2.000000 
-1.165830 1.045090 55.823582 40 43 25 2.000000 
-1.164590 1.045380 55.823929 33 37 18 2.000000 
-1.169900 1.042560 55.821751 23 27 13 2.000000 
-1.166500 1.043430 55.820389 24 28 7 2.000000 
-1.167270 1.042900 55.820221 21 27 5 2.000000 
-1.167800 1.043380 55.821079 22 28 7 2.000000 
-1.166890 1.043720 55.821320 23 29 7 2.000000 
-1.165700 1.043850 55.821659 26 31 13 2.000000 
-1.168350 1.042610 55.819950 21 27 5 2.000000 
-1.169070 1.041870 55.819889 20 26 6 2.000000 
-1.168380 1.042610 55.821098 22 28 8 2.000000 
-1.169420 1.042130 55.820862 22 28 8 2.000000 
-1.167880 1.044570 55.823029 37 41 22 2.000000 
-1.167440 1.045340 55.824120 43 47 28 2.000000 
-1.168570 1.045160 55.823769 40 44 25 2.000000 
-1.168880 1.044260 55.822750 30 34 16 2.000000 
-1.169700 1.043730 55.822620 27 32 17 2.000000 
-1.170670 1.043230 55.822418 27 32 17 2.000000 
-1.169760 1.045040 55.823391 33 37 18 2.000000 
-1.170340 1.044260 55.823399 30 34 18 2.000000 
-1.170230 1.045410 55.824280 33 36 18 2.000000 
-1.170840 1.044660 55.824299 30 33 16 2.000000 
-1.171170 1.043630 55.823311 31 28 5 2.000000 
-1.166470 1.044520 55.822369 34 37 19 2.000000 
-1.167160 1.045100 55.823120 42 46 27 2.000000 
-1.167250 1.044040 55.822250 30 33 15 2.000000 
-1.168190 1.043670 55.822010 23 28 9 2.000000 
-1.168760 1.042900 55.822029 23 28 10 2.000000 
-1.168460 1.047310 55.826672 40 44 21 2.000000 
-1.169170 1.047920 55.827412 37 40 16 2.000000 
-1.173730 1.045790 55.826439 28 32 15 2.000000 
-1.169790 1.046180 55.825371 35 39 21 2.000000 
-1.169150 1.046750 55.826580 37 41 24 2.000000 
-1.170370 1.046660 55.826191 35 38 21 2.000000 
-1.171690 1.045410 55.824928 27 31 14 2.000000 
-1.170730 1.045810 55.825130 31 35 17 2.000000 
-1.172380 1.044640 55.824909 24 28 10 2.000000 
-1.171360 1.046340 55.825951 31 35 17 2.000000 
-1.172130 1.045760 55.825821 27 31 14 2.000000 
-1.171890 1.046770 55.826771 31 35 18 2.000000 
-1.172350 1.045940 55.826859 29 33 16 2.000000 
-1.172880 1.045040 55.825771 26 29 12 2.000000 
-1.171050 1.048390 55.827770 37 44 18 2.000000 
-1.172190 1.049370 55.829411 42 48 27 2.000000 
-1.172910 1.048790 55.829361 42 45 26 2.000000 
-1.171690 1.048920 55.828590 40 48 23 2.000000 
-1.172350 1.048340 55.828499 37 49 21 2.000000 
-1.174590 1.046480 55.827110 29 32 17 2.000000 
-1.172520 1.047300 55.827591 34 37 20 2.000000 
-1.173290 1.046720 55.827461 33 37 20 2.000000 
-1.173210 1.047890 55.828331 37 41 22 2.000000 
-1.173930 1.047250 55.828239 34 38 18 2.000000 
-1.169950 1.047450 55.827251 33 38 16 2.000000 
-1.170720 1.046980 55.827122 33 37 20 2.000000 
-1.171360 1.047510 55.827900 36 40 20 2.000000 
-1.166770 1.045840 55.825359 36 40 21 2.000000 
-1.167990 1.046880 55.825771 39 43 24 2.000000 
-1.165640 1.046270 55.824490 34 37 19 2.000000 
-1.165890 1.045060 55.824730 39 43 25 2.000000 
-1.169260 1.045750 55.824520 36 39 21 2.000000 
-1.167960 1.045770 55.824982 36 40 21 2.000000 
-1.168510 1.046220 55.825790 37 40 23 2.000000 
-1.172540 1.043490 55.824001 23 25 7 2.000000 
-1.172930 1.042640 55.824131 21 23 13 2.000000 
-1.178620 1.037530 55.820091 26 31 16 2.000000 
-1.179280 1.038030 55.820869 28 31 14 2.000000 
-1.179780 1.038490 55.821720 30 28 11 2.000000 
-1.177790 1.038020 55.821400 30 32 24 2.000000 
-1.180030 1.039930 55.822411 33 37 12 2.000000 
-1.178780 1.040110 55.822800 36 41 20 2.000000 
-1.180690 1.039230 55.822361 28 30 6 2.000000 
-1.180690 1.040490 55.823158 32 37 9 2.000000 
-1.180390 1.041500 55.824139 36 44 14 2.000000 
-1.181460 1.039900 55.823071 26 28 6 2.000000 
-1.179670 1.040880 55.823441 36 45 13 2.000000 
-1.177430 1.038980 55.822430 33 36 19 2.000000 
-1.177760 1.040420 55.824230 37 45 16 2.000000 
-1.176600 1.039420 55.823738 35 42 21 2.000000 
-1.178700 1.038830 55.821999 32 33 18 2.000000 
-1.171000 1.042190 55.821430 21 25 11 2.000000 
-1.171500 1.041440 55.821491 18 23 8 2.000000 
-1.171830 1.040410 55.820499 16 28 6 2.000000 
-1.172180 1.040670 55.821468 15 21 6 2.000000 
-1.173150 1.039050 55.821579 28 31 16 2.000000 
-1.170420 1.040560 55.819820 16 27 6 2.000000 
-1.171110 1.039790 55.819801 16 27 6 2.000000 
-1.171050 1.041100 55.820599 19 23 9 2.000000 
-1.169420 1.040880 55.820049 21 27 7 2.000000 
-1.170310 1.041650 55.820690 21 26 10 2.000000 
-1.171300 1.038640 55.820030 20 29 9 2.000000 
-1.171690 1.037790 55.820129 27 33 13 2.000000 
-1.171710 1.039010 55.820930 19 27 9 2.000000 
-1.172430 1.039570 55.821671 21 23 14 2.000000 
-1.172380 1.038380 55.820869 32 35 18 2.000000 
-1.171520 1.042670 55.822289 22 26 14 2.000000 
-1.171830 1.041680 55.822449 16 23 14 2.000000 
-1.172050 1.043090 55.823139 25 24 11 2.000000 
-1.172520 1.042270 55.823200 20 21 12 2.000000 
-1.172540 1.040990 55.822399 16 24 7 2.000000 
-1.173200 1.040240 55.822380 26 29 15 2.000000 
-1.173730 1.039530 55.822399 29 32 15 2.000000 
-1.173230 1.041580 55.823139 21 25 9 2.000000 
-1.173730 1.040670 55.823231 28 31 7 2.000000 
-1.173620 1.041870 55.824108 25 27 15 2.000000 
-1.174220 1.041070 55.824089 36 36 13 2.000000 
-1.174310 1.040010 55.823219 29 32 12 2.000000 
-1.174890 1.040490 55.824039 44 42 12 2.000000 
-1.175390 1.037240 55.820148 33 36 19 2.000000 
-1.175690 1.037510 55.821121 36 40 24 2.000000 
-1.174580 1.037710 55.821468 30 33 16 2.000000 
-1.177870 1.036880 55.819382 27 32 17 2.000000 
-1.176240 1.036740 55.819988 31 36 21 2.000000 
-1.177020 1.037410 55.820660 31 35 22 2.000000 
-1.174530 1.036550 55.819481 31 36 21 2.000000 
-1.172680 1.037420 55.819889 33 38 16 2.000000 
-1.173450 1.036780 55.819790 30 35 9 2.000000 
-1.173090 1.037740 55.820820 32 36 16 2.000000 
-1.173670 1.038220 55.821629 29 31 14 2.000000 
-1.173950 1.037180 55.820648 30 34 12 2.000000 
-1.175410 1.036020 55.819321 31 36 21 2.000000 
-1.175380 1.038410 55.822102 29 32 15 2.000000 
-1.176190 1.037910 55.821972 32 36 21 2.000000 
-1.175990 1.038920 55.822922 31 35 15 2.000000 
-1.174200 1.038650 55.822449 26 29 11 2.000000 
-1.175470 1.039710 55.824051 33 38 13 2.000000 
-1.174670 1.039020 55.823380 29 34 11 2.000000 
-1.174390 1.045040 55.826420 28 31 15 2.000000 
-1.175060 1.044400 55.826359 29 30 19 2.000000 
-1.177050 1.044810 55.826721 47 48 29 2.000000 
-1.177930 1.044230 55.826591 46 47 23 2.000000 
-1.175880 1.043770 55.826229 39 40 23 2.000000 
-1.176820 1.043290 55.826069 48 48 25 2.000000 
-1.177510 1.042680 55.825970 49 46 21 2.000000 
-1.173900 1.044640 55.825531 23 29 11 2.000000 
-1.173100 1.043950 55.824860 21 27 6 2.000000 
-1.173430 1.043040 55.824982 21 27 13 2.000000 
-1.174200 1.043710 55.825691 20 30 13 2.000000 
-1.175970 1.042590 55.825401 52 51 25 2.000000 
-1.176770 1.042090 55.825230 50 49 17 2.000000 
-1.174340 1.042480 55.824821 27 30 20 2.000000 
-1.175000 1.041740 55.824799 37 36 21 2.000000 
-1.175860 1.041290 55.824631 48 45 12 2.000000 
-1.174890 1.042940 55.825668 34 37 23 2.000000 
-1.175800 1.046240 55.827911 32 36 17 2.000000 
-1.174970 1.045520 55.827240 29 32 22 2.000000 
-1.175580 1.044830 55.827221 33 36 23 2.000000 
-1.178840 1.042580 55.825550 55 52 25 2.000000 
-1.179250 1.041680 55.824490 41 50 16 2.000000 
-1.177290 1.041270 55.825279 52 48 16 2.000000 
-1.176320 1.040410 55.824692 41 43 9 2.000000 
-1.175480 1.051070 55.830151 54 59 36 2.000000 
-1.176330 1.050620 55.829979 51 54 30 2.000000 
-1.177020 1.049960 55.829929 41 44 17 2.000000 
-1.173430 1.050450 55.829861 47 51 32 2.000000 
-1.173760 1.049540 55.829990 46 49 29 2.000000 
-1.175230 1.049630 55.829491 44 46 25 2.000000 
-1.175530 1.048640 55.829620 40 40 18 2.000000 
-1.178150 1.049560 55.829651 48 52 27 2.000000 
-1.164400 1.043930 55.819790 21 28 6 2.000000 
-1.162820 1.043890 55.820358 25 30 8 2.000000 
-1.164340 1.043840 55.821011 21 32 10 2.000000 
-1.163050 1.044080 55.821362 22 32 11 2.000000 
-1.163600 1.044530 55.822220 27 38 16 2.000000 
-1.164670 1.044080 55.821980 22 34 12 2.000000 
-1.163760 1.044660 55.823261 32 41 19 2.000000 
-1.165030 1.043320 55.819771 23 28 6 2.000000 
-1.165310 1.043560 55.820740 24 30 8 2.000000 
-1.203310 1.020690 55.797352 53 37 7 2.000000 
-1.210130 1.025160 55.794830 79 61 25 2.000000 
-1.207460 1.024210 55.796028 85 60 21 2.000000 
-1.214670 1.018300 55.795029 24 19 5 2.000000 
-1.205690 1.021460 55.796261 48 34 9 2.000000 
-1.201320 1.019060 55.797340 25 18 3 2.000000 
-1.202210 1.018530 55.797169 25 21 8 2.000000 
-1.201770 1.017030 55.797741 24 20 4 2.000000 
-1.201990 1.016240 55.797878 25 21 5 2.000000 
-1.202100 1.015170 55.798119 25 20 4 2.000000 
-1.203210 1.013730 55.798119 20 16 1 2.000000 
-1.202350 1.014130 55.798321 22 18 2 2.000000 
-1.202880 1.012350 55.798618 20 15 0 2.000000 
-1.203570 1.010400 55.798908 16 12 0 2.000000 
-1.168450 1.027150 55.786072 19 23 10 2.000000 
-1.168660 1.027280 55.787109 23 26 12 2.000000 
-1.169160 1.026460 55.786011 22 23 8 2.000000 
-1.169380 1.026640 55.787048 20 23 10 2.000000 
-1.169880 1.025710 55.785950 24 21 4 2.000000 
-1.170120 1.025920 55.786991 21 21 5 2.000000 
-1.173270 1.025950 55.789299 24 22 7 2.000000 
-1.169270 1.027790 55.787930 24 27 13 2.000000 
-1.169520 1.026690 55.788132 18 23 10 2.000000 
-1.169550 1.028020 55.788891 20 23 8 2.000000 
-1.169930 1.027060 55.789021 16 19 2 2.000000 
-1.170570 1.026270 55.787891 19 21 6 2.000000 
-1.170980 1.026580 55.788818 18 19 9 2.000000 
-1.171040 1.025570 55.789059 18 18 4 2.000000 
-1.167890 1.026700 55.785252 22 26 10 2.000000 
-1.170320 1.028610 55.790791 20 23 8 2.000000 
-1.173130 1.025840 55.790562 17 18 5 2.000000 
-1.171920 1.027350 55.791752 19 22 5 2.000000 
-1.172470 1.026770 55.791698 17 20 4 2.000000 
-1.173320 1.025940 55.791641 14 13 2 2.000000 
-1.169960 1.028340 55.789822 19 22 7 2.000000 
-1.170350 1.027380 55.789951 19 21 5 2.000000 
-1.170620 1.027560 55.790989 20 23 7 2.000000 
-1.170810 1.027720 55.792030 18 21 7 2.000000 
-1.171120 1.026690 55.789890 20 23 5 2.000000 
-1.171640 1.027110 55.790749 20 23 6 2.000000 
-1.171200 1.025700 55.790131 19 21 10 2.000000 
-1.172030 1.026430 55.790798 19 22 5 2.000000 
-1.171310 1.028120 55.792881 17 19 7 2.000000 
-1.170790 1.028920 55.794010 17 19 11 2.000000 
-1.171720 1.028440 55.793812 14 21 8 2.000000 
-1.171720 1.027130 55.793049 17 20 6 2.000000 
-1.172470 1.026740 55.792850 23 21 7 2.000000 
-1.173350 1.025940 55.792789 26 15 6 2.000000 
-1.172000 1.027320 55.794048 19 24 10 2.000000 
-1.172660 1.026840 55.793919 21 22 9 2.000000 
-1.173600 1.026150 55.793789 21 18 6 2.000000 
-1.170070 1.028390 55.792122 17 19 9 2.000000 
-1.170230 1.028460 55.793201 16 18 7 2.000000 
-1.173980 1.025250 55.791580 24 16 2 2.000000 
-1.173930 1.025170 55.792770 21 16 2 2.000000 
-1.174200 1.025400 55.793770 18 16 4 2.000000 
-1.174370 1.028190 55.798710 18 23 11 2.000000 
-1.173540 1.028500 55.798950 16 21 11 2.000000 
-1.175250 1.027390 55.798649 17 24 6 2.000000 
-1.175860 1.026760 55.796299 13 15 0 2.000000 
-1.176020 1.026840 55.797371 16 19 2 2.000000 
-1.176630 1.027310 55.799339 17 23 5 2.000000 
-1.176330 1.027100 55.798340 18 24 6 2.000000 
-1.178780 1.025430 55.797909 20 20 5 2.000000 
-1.177180 1.025400 55.797340 21 21 6 2.000000 
-1.176990 1.025180 55.798630 19 20 4 2.000000 
-1.171230 1.029260 55.794910 14 19 7 2.000000 
-1.171860 1.028540 55.794891 7 23 5 2.000000 
-1.171480 1.029470 55.795952 14 19 7 2.000000 
-1.171670 1.029630 55.796989 14 19 7 2.000000 
-1.172280 1.028860 55.795818 13 20 6 2.000000 
-1.172440 1.028990 55.796890 15 19 7 2.000000 
-1.174010 1.026470 55.794720 16 18 5 2.000000 
-1.174530 1.026890 55.795570 14 17 3 2.000000 
-1.172490 1.027720 55.794899 15 23 8 2.000000 
-1.173020 1.027160 55.794849 17 22 7 2.000000 
-1.172830 1.028010 55.795872 16 23 8 2.000000 
-1.173520 1.027560 55.795738 17 21 6 2.000000 
-1.173210 1.028300 55.796799 19 22 9 2.000000 
-1.173660 1.027610 55.796860 21 22 8 2.000000 
-1.174510 1.026830 55.796761 14 17 3 2.000000 
-1.171970 1.029840 55.797989 14 18 6 2.000000 
-1.172630 1.029150 55.797932 15 19 7 2.000000 
-1.171860 1.029700 55.799210 12 17 5 2.000000 
-1.172710 1.029140 55.799080 13 18 7 2.000000 
-1.173460 1.028510 55.797798 15 19 7 2.000000 
-1.173790 1.027710 55.797932 20 22 8 2.000000 
-1.174860 1.027100 55.797722 16 21 3 2.000000 
-1.174620 1.025720 55.794701 15 18 3 2.000000 
-1.175220 1.026230 55.795521 11 15 1 2.000000 
-1.175450 1.025190 55.794571 15 17 2 2.000000 
-1.175690 1.025350 55.795570 13 16 1 2.000000 
-1.176190 1.025750 55.796459 16 16 0 2.000000 
-1.176190 1.025720 55.797611 17 20 3 2.000000 
-1.176190 1.025680 55.798801 18 22 5 2.000000 
-1.216380 1.015980 55.796230 17 16 0 2.000000 
-1.218530 1.015210 55.796829 21 18 0 2.000000 
-1.220210 1.014150 55.797680 23 20 3 2.000000 
-1.228300 1.005270 55.792431 105 101 63 2.000000 
-1.211820 1.004940 55.796200 7 9 0 2.000000 
-1.210360 1.004960 55.796741 11 12 0 2.000000 
-1.209750 1.003160 55.798641 5 10 2 2.000000 
-1.230930 1.004000 55.787071 117 109 74 2.000000 
-1.229600 1.003960 55.794621 113 111 78 2.000000 
-1.229240 1.002350 55.796379 82 88 54 2.000000 
-1.226450 1.001400 55.797649 79 79 49 2.000000 
-1.179580 1.029550 55.809261 21 24 10 2.000000 
-1.179990 1.028710 55.808159 19 22 7 2.000000 
