ply
format ascii 1.0
comment Created by CloudCompare v2.14.alpha (Sep 13 2025)
comment Created 2025-11-28T18:45:56
obj_info Generated by CloudCompare!
element vertex 980
property float x
property float y
property float z
property uchar red
property uchar green
property uchar blue
property float scalar_label
end_header
-0.404960 1.131040 55.995911 56 61 29 2.000000 
-0.404310 1.131140 55.997299 42 47 20 2.000000 
-0.403350 1.131240 55.998638 39 45 15 2.000000 
-0.402860 1.132600 55.996948 34 36 15 2.000000 
-0.402440 1.132660 55.998371 44 39 21 2.000000 
-0.404630 1.129650 55.997410 70 79 39 2.000000 
-0.349780 1.183780 56.043018 102 102 71 2.000000 
-0.356460 1.182810 56.042889 80 75 45 2.000000 
-0.369380 1.115140 56.008301 65 73 36 2.000000 
-0.367900 1.117920 56.007912 64 64 35 2.000000 
-0.368750 1.115180 56.011292 60 70 39 2.000000 
-0.369180 1.116480 56.011372 59 70 39 2.000000 
-0.367910 1.115300 56.012669 58 69 42 2.000000 
-0.368030 1.116610 56.012669 52 64 36 2.000000 
-0.369670 1.115080 56.009949 61 69 36 2.000000 
-0.370180 1.116370 56.010029 57 66 35 2.000000 
-0.370100 1.117660 56.009998 60 65 38 2.000000 
-0.378080 1.178200 56.025791 81 86 46 2.000000 
-0.376820 1.178390 56.027050 75 83 43 2.000000 
-0.379130 1.179550 56.029060 91 99 58 2.000000 
-0.380020 1.177910 56.024639 84 87 53 2.000000 
-0.382380 1.177560 56.023621 85 93 60 2.000000 
-0.384560 1.177270 56.022549 77 90 53 2.000000 
-0.386980 1.178420 56.023060 80 93 51 2.000000 
-0.385460 1.178640 56.024281 81 92 55 2.000000 
-0.384620 1.178770 56.025620 87 94 61 2.000000 
-0.381300 1.179220 56.027988 88 97 57 2.000000 
-0.382940 1.179020 56.026810 89 98 59 2.000000 
-0.393520 1.179330 56.024471 81 103 46 2.000000 
-0.392340 1.179500 56.025768 86 96 52 2.000000 
-0.394360 1.180480 56.024632 80 91 46 2.000000 
-0.392180 1.179520 56.027271 78 85 53 2.000000 
-0.393280 1.180640 56.027470 66 73 43 2.000000 
-0.391000 1.179690 56.028568 77 83 50 2.000000 
-0.391680 1.180870 56.028690 67 73 42 2.000000 
-0.389740 1.179880 56.029831 79 87 51 2.000000 
-0.390080 1.181070 56.029881 72 80 46 2.000000 
-0.394580 1.180440 56.026241 77 85 33 2.000000 
-0.388790 1.180020 56.031170 80 88 50 2.000000 
-0.388670 1.181280 56.031101 72 80 45 2.000000 
-0.398830 1.136140 56.002090 51 74 28 2.000000 
-0.398790 1.136140 56.003632 78 94 36 2.000000 
-0.399350 1.136050 56.005322 90 108 50 2.000000 
-0.439020 1.129430 55.993271 28 23 2 2.000000 
-0.277410 1.155930 56.191200 56 67 30 2.000000 
-0.276700 1.152840 56.192719 77 86 51 2.000000 
-0.279440 1.152500 56.194691 88 105 60 2.000000 
-0.276580 1.151340 56.195900 85 102 50 2.000000 
-0.279360 1.152510 56.196259 74 95 37 2.000000 
-0.279650 1.154110 56.193119 47 58 28 2.000000 
-0.279920 1.154100 56.194729 60 79 34 2.000000 
-0.279420 1.155660 56.193081 53 70 33 2.000000 
-0.279840 1.155630 56.194698 50 69 24 2.000000 
-0.280090 1.157020 56.194740 62 100 34 2.000000 
-0.279490 1.154120 56.196270 70 87 34 2.000000 
-0.279670 1.155610 56.196270 59 78 30 2.000000 
-0.280230 1.157000 56.196320 69 96 50 2.000000 
-0.280730 1.158510 56.196362 71 93 42 2.000000 
-0.276530 1.152850 56.199020 79 107 51 2.000000 
-0.278320 1.152620 56.197681 60 87 27 2.000000 
-0.279330 1.154140 56.197800 66 83 34 2.000000 
-0.278600 1.154240 56.199299 59 82 33 2.000000 
-0.279170 1.155680 56.197769 61 78 34 2.000000 
-0.279810 1.157060 56.197849 66 86 45 2.000000 
-0.278830 1.155720 56.199299 61 85 39 2.000000 
-0.279160 1.157150 56.199310 59 86 37 2.000000 
-0.276730 1.154480 56.200600 85 102 53 2.000000 
-0.278170 1.155820 56.200760 60 84 28 2.000000 
-0.276870 1.155970 56.202179 76 93 30 2.000000 
-0.277470 1.157360 56.202221 63 93 33 2.000000 
-0.278620 1.157230 56.200809 68 101 37 2.000000 
-0.275920 1.156110 56.203602 90 110 49 2.000000 
-0.276210 1.157500 56.203640 78 102 39 2.000000 
-0.280270 1.158540 56.197899 67 86 46 2.000000 
-0.279270 1.158690 56.199310 78 99 46 2.000000 
-0.277810 1.158860 56.202271 75 105 43 2.000000 
-0.278700 1.160320 56.200779 82 99 42 2.000000 
-0.277870 1.162040 56.202202 96 107 41 2.000000 
-0.278090 1.160410 56.202271 90 113 50 2.000000 
-0.278960 1.158730 56.200851 77 106 45 2.000000 
-0.276750 1.159010 56.203678 88 114 46 2.000000 
-0.277440 1.162060 56.203732 89 107 41 2.000000 
-0.277740 1.160460 56.203812 93 117 48 2.000000 
-0.276890 1.160540 56.205261 84 110 43 2.000000 
-0.277360 1.162060 56.205311 81 103 44 2.000000 
-0.277510 1.162070 56.206879 83 118 48 2.000000 
-0.278560 1.163390 56.207008 100 113 56 2.000000 
-0.277000 1.162110 56.208382 90 114 44 2.000000 
-0.278560 1.163390 56.208580 80 106 38 2.000000 
-0.279700 1.164800 56.208740 77 102 36 2.000000 
-0.278060 1.165010 56.210079 74 105 42 2.000000 
-0.278360 1.163410 56.210159 78 114 50 2.000000 
-0.281670 1.166080 56.213711 72 67 35 2.000000 
-0.277590 1.165070 56.214729 117 124 63 2.000000 
-0.291440 1.164790 56.216621 105 112 60 2.000000 
-0.286290 1.165480 56.220600 113 113 66 2.000000 
-0.289950 1.164970 56.219540 118 119 87 2.000000 
-0.292960 1.164550 56.218391 108 115 58 2.000000 
-0.284200 1.170480 56.201401 100 106 53 2.000000 
-0.282360 1.170710 56.202702 73 79 27 2.000000 
-0.280830 1.170900 56.204079 84 91 42 2.000000 
-0.279040 1.171170 56.205379 85 99 44 2.000000 
-0.282140 1.172370 56.204239 73 88 34 2.000000 
-0.286220 1.171800 56.203259 79 92 43 2.000000 
-0.283850 1.172110 56.206051 81 113 36 2.000000 
-0.296500 1.170410 56.201561 90 99 41 2.000000 
-0.295270 1.170550 56.202980 92 101 50 2.000000 
-0.296410 1.172000 56.206249 104 116 64 2.000000 
-0.278610 1.171220 56.208488 106 116 49 2.000000 
-0.279350 1.167990 56.213360 60 66 28 2.000000 
-0.290500 1.166490 56.216469 90 104 53 2.000000 
-0.283390 1.204100 56.208599 86 75 40 2.000000 
-0.285110 1.202330 56.208870 90 85 50 2.000000 
-0.285060 1.203840 56.210411 89 69 34 2.000000 
-0.284010 1.205670 56.211788 104 84 48 2.000000 
-0.288970 1.201730 56.210991 106 89 44 2.000000 
-0.290290 1.203040 56.212688 66 46 19 2.000000 
-0.291900 1.204500 56.214470 74 57 21 2.000000 
-0.293060 1.201110 56.213120 84 63 30 2.000000 
-0.292940 1.202640 56.214661 50 38 15 2.000000 
-0.293020 1.202660 56.216240 61 44 21 2.000000 
-0.296020 1.200650 56.215092 78 59 28 2.000000 
-0.297150 1.200480 56.216820 81 63 23 2.000000 
-0.300260 1.198650 56.215710 112 99 50 2.000000 
-0.298280 1.171760 56.204948 107 116 77 2.000000 
-0.303500 1.171010 56.202591 85 95 42 2.000000 
-0.302930 1.171100 56.204048 96 106 58 2.000000 
-0.308130 1.172060 56.201649 93 102 54 2.000000 
-0.308430 1.172010 56.203259 82 92 42 2.000000 
-0.308460 1.172000 56.204842 89 102 53 2.000000 
-0.308420 1.172010 56.206371 98 111 56 2.000000 
-0.310840 1.174770 56.200439 84 93 44 2.000000 
-0.308980 1.173330 56.201729 72 91 45 2.000000 
-0.311550 1.174650 56.202091 69 91 42 2.000000 
-0.311570 1.176290 56.200520 79 88 39 2.000000 
-0.312290 1.176170 56.202179 74 92 44 2.000000 
-0.312550 1.177620 56.199070 91 91 40 2.000000 
-0.312550 1.177620 56.200642 76 83 38 2.000000 
-0.311930 1.177700 56.202099 71 72 35 2.000000 
-0.308900 1.173340 56.203308 76 101 50 2.000000 
-0.308670 1.173370 56.204842 83 99 44 2.000000 
-0.311050 1.174720 56.203590 69 99 48 2.000000 
-0.312850 1.176080 56.203831 68 87 42 2.000000 
-0.308810 1.173340 56.206421 85 102 39 2.000000 
-0.311120 1.174710 56.205158 74 105 51 2.000000 
-0.311690 1.174660 56.206779 93 111 50 2.000000 
-0.312500 1.176130 56.205330 76 96 47 2.000000 
-0.311930 1.176210 56.206779 71 89 43 2.000000 
-0.311550 1.177760 56.203602 65 62 30 2.000000 
-0.311770 1.177720 56.205170 55 75 26 2.000000 
-0.311610 1.177740 56.206711 68 86 40 2.000000 
-0.311690 1.179280 56.206711 86 90 50 2.000000 
-0.299370 1.171580 56.208221 107 119 63 2.000000 
-0.307990 1.172060 56.207870 106 119 62 2.000000 
-0.307530 1.172090 56.209370 103 110 56 2.000000 
-0.303930 1.170960 56.210430 112 116 75 2.000000 
-0.305520 1.170710 56.212238 114 115 66 2.000000 
-0.307560 1.172080 56.210899 103 108 57 2.000000 
-0.298220 1.168500 56.215931 102 114 66 2.000000 
-0.302160 1.169590 56.213329 116 126 67 2.000000 
-0.305550 1.170700 56.213772 116 121 66 2.000000 
-0.307170 1.172130 56.212440 108 111 62 2.000000 
-0.306830 1.172180 56.213928 100 109 46 2.000000 
-0.304900 1.169210 56.215260 106 119 59 2.000000 
-0.303980 1.169340 56.216721 118 122 79 2.000000 
-0.306380 1.170570 56.215469 99 110 39 2.000000 
-0.306920 1.170530 56.217079 110 117 57 2.000000 
-0.307350 1.172100 56.215549 87 108 34 2.000000 
-0.307500 1.172110 56.217129 82 105 36 2.000000 
-0.307800 1.173480 56.212479 102 111 51 2.000000 
-0.307380 1.173530 56.213982 103 104 43 2.000000 
-0.303610 1.174060 56.216579 84 101 24 2.000000 
-0.306530 1.173620 56.215439 85 108 36 2.000000 
-0.307780 1.175180 56.215561 94 116 40 2.000000 
-0.306210 1.175370 56.216900 100 111 31 2.000000 
-0.308120 1.176710 56.217140 114 123 49 2.000000 
-0.309040 1.173300 56.207989 90 106 40 2.000000 
-0.308800 1.173340 56.209530 92 106 40 2.000000 
-0.310190 1.174830 56.209690 83 107 41 2.000000 
-0.311070 1.174710 56.208241 90 109 49 2.000000 
-0.311620 1.176250 56.208321 71 89 42 2.000000 
-0.311190 1.176310 56.209808 67 88 36 2.000000 
-0.308230 1.173420 56.210991 95 110 47 2.000000 
-0.310000 1.174860 56.211231 83 111 42 2.000000 
-0.311000 1.176340 56.211311 75 103 45 2.000000 
-0.311270 1.177780 56.208241 72 89 43 2.000000 
-0.311030 1.179330 56.208172 74 74 40 2.000000 
-0.310840 1.177840 56.209740 62 80 35 2.000000 
-0.310540 1.179400 56.209671 70 75 38 2.000000 
-0.311140 1.177790 56.211319 70 82 41 2.000000 
-0.310910 1.179340 56.211281 72 78 40 2.000000 
-0.309350 1.174950 56.212681 91 115 46 2.000000 
-0.308470 1.175080 56.214100 96 113 46 2.000000 
-0.310800 1.176360 56.214420 96 111 51 2.000000 
-0.311220 1.176300 56.212929 84 116 52 2.000000 
-0.309730 1.176510 56.215801 99 116 41 2.000000 
-0.311050 1.177790 56.214432 98 107 52 2.000000 
-0.311360 1.177750 56.212929 80 88 43 2.000000 
-0.310630 1.177850 56.215919 99 110 40 2.000000 
-0.311090 1.179340 56.215969 98 102 45 2.000000 
-0.293180 1.166100 56.221550 122 126 80 2.000000 
-0.296950 1.165610 56.220490 120 125 88 2.000000 
-0.296990 1.167230 56.223598 110 129 70 2.000000 
-0.293170 1.169160 56.224628 114 119 55 2.000000 
-0.292980 1.170820 56.226131 113 120 56 2.000000 
-0.297130 1.170230 56.225109 121 127 63 2.000000 
-0.295620 1.172050 56.226452 108 116 38 2.000000 
-0.296700 1.173550 56.226582 121 124 48 2.000000 
-0.297330 1.176620 56.221939 114 107 38 2.000000 
-0.290600 1.177560 56.222569 108 95 35 2.000000 
-0.292910 1.177200 56.224461 109 99 44 2.000000 
-0.297260 1.174910 56.225079 133 133 66 2.000000 
-0.296260 1.175020 56.226501 128 127 57 2.000000 
-0.297510 1.176580 56.226631 121 122 63 2.000000 
-0.292940 1.178810 56.229111 116 112 46 2.000000 
-0.298600 1.176410 56.228359 117 119 52 2.000000 
-0.298080 1.178120 56.228249 109 111 43 2.000000 
-0.298250 1.179560 56.231361 112 110 52 2.000000 
-0.295700 1.181450 56.232590 96 84 36 2.000000 
-0.294900 1.181570 56.234039 81 86 15 2.000000 
-0.291150 1.202900 56.217541 69 57 25 2.000000 
-0.300180 1.198660 56.217289 122 113 61 2.000000 
-0.299720 1.198720 56.218781 133 121 75 2.000000 
-0.297380 1.200480 56.218441 98 81 34 2.000000 
-0.297610 1.165520 56.219028 104 117 66 2.000000 
-0.297820 1.167160 56.217461 101 115 61 2.000000 
-0.299480 1.166900 56.219231 96 118 55 2.000000 
-0.302250 1.167960 56.219589 110 122 58 2.000000 
-0.299550 1.166890 56.220810 111 120 49 2.000000 
-0.301170 1.168080 56.221008 108 121 48 2.000000 
-0.301120 1.169730 56.217861 110 119 71 2.000000 
-0.302330 1.169540 56.219601 113 125 67 2.000000 
-0.299480 1.171520 56.220741 101 110 42 2.000000 
-0.299350 1.173210 56.220711 100 105 40 2.000000 
-0.302630 1.167910 56.218090 110 121 65 2.000000 
-0.305920 1.170630 56.218498 94 115 49 2.000000 
-0.306580 1.172200 56.218578 97 111 36 2.000000 
-0.302980 1.171030 56.219639 109 121 57 2.000000 
-0.303350 1.169380 56.221291 115 126 64 2.000000 
-0.303570 1.172620 56.219719 112 118 45 2.000000 
-0.298940 1.166980 56.222301 112 126 61 2.000000 
-0.298120 1.168490 56.223721 108 124 52 2.000000 
-0.300330 1.168200 56.222462 103 122 43 2.000000 
-0.299970 1.171440 56.222359 100 114 38 2.000000 
-0.299760 1.169880 56.223930 118 128 56 2.000000 
-0.299720 1.173150 56.222279 79 86 42 2.000000 
-0.301860 1.169600 56.222630 113 126 52 2.000000 
-0.301220 1.171290 56.224091 124 135 69 2.000000 
-0.301730 1.172880 56.224129 114 127 55 2.000000 
-0.299080 1.171570 56.225349 122 131 67 2.000000 
-0.299940 1.173110 56.225471 124 131 59 2.000000 
-0.302680 1.174150 56.217999 107 112 32 2.000000 
-0.302680 1.174150 56.219570 122 125 49 2.000000 
-0.303710 1.177340 56.218090 113 116 40 2.000000 
-0.299740 1.174550 56.220711 107 113 38 2.000000 
-0.302630 1.177490 56.221081 119 112 60 2.000000 
-0.305830 1.175430 56.218430 112 113 34 2.000000 
-0.303840 1.175680 56.221272 127 132 61 2.000000 
-0.306430 1.175330 56.220051 127 130 58 2.000000 
-0.299020 1.174660 56.222172 93 96 31 2.000000 
-0.298970 1.174660 56.223751 131 122 77 2.000000 
-0.299420 1.179410 56.222149 103 86 34 2.000000 
-0.303420 1.180400 56.222698 116 105 54 2.000000 
-0.303800 1.177310 56.222771 115 103 45 2.000000 
-0.304750 1.177200 56.224468 131 122 71 2.000000 
-0.304820 1.177180 56.226040 123 122 61 2.000000 
-0.305090 1.178620 56.224510 123 120 58 2.000000 
-0.308380 1.181350 56.223339 128 121 74 2.000000 
-0.309550 1.182690 56.223461 114 98 43 2.000000 
-0.307740 1.179770 56.224831 115 116 44 2.000000 
-0.306830 1.178350 56.226280 120 125 47 2.000000 
-0.307470 1.179810 56.226360 116 124 43 2.000000 
-0.308900 1.181270 56.224949 95 115 43 2.000000 
-0.308710 1.181290 56.226490 110 117 51 2.000000 
-0.309420 1.182700 56.226570 89 116 52 2.000000 
-0.309490 1.178020 56.217300 115 120 54 2.000000 
-0.310190 1.182590 56.225121 83 107 42 2.000000 
-0.303180 1.177390 56.227379 112 118 47 2.000000 
-0.302190 1.183710 56.228699 99 110 56 2.000000 
-0.300190 1.180820 56.231602 96 93 46 2.000000 
-0.299680 1.182570 56.229950 92 97 46 2.000000 
-0.301980 1.179040 56.230301 103 111 51 2.000000 
-0.306330 1.179980 56.227741 95 103 31 2.000000 
-0.305180 1.178590 56.229191 108 115 49 2.000000 
-0.306130 1.180000 56.229279 84 97 29 2.000000 
-0.305160 1.181780 56.229130 87 103 40 2.000000 
-0.306550 1.178390 56.227821 111 115 44 2.000000 
-0.307150 1.181530 56.227829 101 113 47 2.000000 
-0.307550 1.182940 56.227871 107 121 65 2.000000 
-0.304910 1.180150 56.230701 78 87 30 2.000000 
-0.307990 1.184710 56.224812 87 97 47 2.000000 
-0.310760 1.184320 56.226742 94 111 54 2.000000 
-0.308890 1.184560 56.228031 101 114 60 2.000000 
-0.285730 1.186050 56.239052 107 98 48 2.000000 
-0.293190 1.183480 56.238461 107 112 55 2.000000 
-0.281630 1.188460 56.238510 105 95 41 2.000000 
-0.162760 1.324960 55.927582 89 62 52 2.000000 
-0.177060 1.322230 55.932770 79 52 33 2.000000 
-0.180000 1.323360 55.940239 46 39 24 2.000000 
-0.161350 1.331770 55.961361 35 28 19 2.000000 
-0.177450 1.323800 55.944759 47 41 24 2.000000 
-0.179950 1.323360 55.941971 53 45 22 2.000000 
-0.178970 1.323540 55.943420 51 46 25 2.000000 
-0.178840 1.323550 55.946800 42 36 20 2.000000 
-0.182260 1.326100 55.957729 38 31 15 2.000000 
-0.178280 1.359810 55.931461 36 36 7 2.000000 
-0.178720 1.361680 55.931469 29 37 11 2.000000 
-0.178480 1.361710 55.934849 21 26 8 2.000000 
-0.177380 1.359990 55.939831 22 22 10 2.000000 
-0.176920 1.360060 55.941441 17 24 19 2.000000 
-0.178460 1.361700 55.939999 21 22 9 2.000000 
-0.177580 1.361860 55.941490 21 19 7 2.000000 
-0.178730 1.359730 55.933270 36 34 9 2.000000 
-0.178970 1.361600 55.933239 23 28 7 2.000000 
-0.178490 1.359760 55.934959 35 33 13 2.000000 
-0.178600 1.359740 55.936691 30 30 9 2.000000 
-0.178920 1.361640 55.936691 23 27 11 2.000000 
-0.178220 1.359830 55.938301 26 27 14 2.000000 
-0.178880 1.361640 55.938381 24 26 13 2.000000 
-0.180840 1.363380 55.931911 23 33 10 2.000000 
-0.180110 1.363530 55.933441 22 31 13 2.000000 
-0.180630 1.363400 55.935280 21 28 12 2.000000 
-0.180590 1.363440 55.936970 19 25 10 2.000000 
-0.183010 1.364520 55.935799 20 22 18 2.000000 
-0.181080 1.363320 55.938820 20 24 10 2.000000 
-0.182860 1.364530 55.937450 14 23 7 2.000000 
-0.182290 1.364650 55.939018 18 23 8 2.000000 
-0.184080 1.366010 55.939381 17 27 10 2.000000 
-0.181260 1.363290 55.940590 20 24 10 2.000000 
-0.182580 1.364600 55.940830 21 26 11 2.000000 
-0.184750 1.365870 55.941261 21 27 12 2.000000 
-0.176430 1.360170 55.943020 10 13 4 2.000000 
-0.177200 1.361950 55.943138 32 28 14 2.000000 
-0.175590 1.360320 55.946239 24 16 8 2.000000 
-0.176050 1.360260 55.944672 20 26 14 2.000000 
-0.177460 1.361910 55.944908 26 18 9 2.000000 
-0.177230 1.361940 55.946560 23 19 7 2.000000 
-0.174290 1.358690 55.947769 22 13 1 2.000000 
-0.174860 1.360460 55.947811 20 18 7 2.000000 
-0.180950 1.363330 55.942200 22 24 11 2.000000 
-0.180790 1.363350 55.943890 26 28 13 2.000000 
-0.182730 1.364570 55.942551 24 28 14 2.000000 
-0.183600 1.324290 55.949589 43 32 14 2.000000 
-0.194050 1.335100 55.951500 31 30 11 2.000000 
-0.183940 1.325820 55.953011 39 41 18 2.000000 
-0.185410 1.323970 55.951710 32 33 11 2.000000 
-0.185410 1.323970 55.953400 33 36 13 2.000000 
-0.184120 1.324200 55.954811 38 34 13 2.000000 
-0.184110 1.325750 55.956429 29 25 6 2.000000 
-0.185590 1.325490 55.955090 27 30 8 2.000000 
-0.186910 1.326860 55.960442 40 31 17 2.000000 
-0.195550 1.334790 55.953579 25 34 21 2.000000 
-0.196010 1.336280 55.951931 24 28 8 2.000000 
-0.196650 1.336170 55.953781 27 30 12 2.000000 
-0.197490 1.337570 55.952209 36 38 19 2.000000 
-0.199660 1.338590 55.952648 30 27 11 2.000000 
-0.198200 1.337410 55.954060 23 25 9 2.000000 
-0.197660 1.335970 55.955700 32 25 11 2.000000 
-0.199020 1.337240 55.955940 28 20 6 2.000000 
-0.200220 1.338470 55.954491 17 24 6 2.000000 
-0.200740 1.338340 55.956299 23 26 10 2.000000 
-0.201050 1.339820 55.954609 20 24 11 2.000000 
-0.201750 1.341110 55.954731 24 19 11 2.000000 
-0.202660 1.339490 55.956692 24 23 11 2.000000 
-0.202970 1.342550 55.954929 25 19 13 2.000000 
-0.157270 1.332550 55.962151 35 25 8 2.000000 
-0.187090 1.326830 55.962170 27 30 15 2.000000 
-0.184040 1.329070 55.964809 29 32 19 2.000000 
-0.188690 1.328180 55.962479 32 26 11 2.000000 
-0.188310 1.328270 55.964100 30 28 12 2.000000 
-0.249850 1.337400 55.969109 22 22 13 2.000000 
-0.261810 1.332080 55.973709 24 20 10 2.000000 
-0.262080 1.334910 55.973652 26 22 7 2.000000 
-0.262680 1.333230 55.973839 24 20 9 2.000000 
-0.263470 1.333060 55.975681 22 19 7 2.000000 
-0.263210 1.334690 55.975571 24 21 9 2.000000 
-0.256320 1.343750 55.993511 15 16 5 2.000000 
-0.261980 1.342590 55.991489 26 19 9 2.000000 
-0.263130 1.327480 55.975861 24 28 10 2.000000 
-0.265210 1.328440 55.976292 23 27 9 2.000000 
-0.264890 1.327130 55.977901 19 25 12 2.000000 
-0.265850 1.328300 55.978062 24 28 13 2.000000 
-0.264240 1.327220 55.979389 26 33 14 2.000000 
-0.266070 1.328260 55.979790 24 30 14 2.000000 
-0.265840 1.328330 55.981361 23 31 13 2.000000 
-0.264660 1.331480 55.976028 20 18 6 2.000000 
-0.265950 1.329960 55.976372 21 21 8 2.000000 
-0.264590 1.334400 55.977531 23 20 8 2.000000 
-0.265410 1.332640 55.977798 20 18 6 2.000000 
-0.266850 1.331070 55.978180 19 19 6 2.000000 
-0.267830 1.329600 55.978451 20 23 8 2.000000 
-0.265710 1.334150 55.979462 20 18 6 2.000000 
-0.267860 1.332150 55.980000 19 18 6 2.000000 
-0.267180 1.333880 55.981419 19 18 6 2.000000 
-0.264820 1.336390 55.977501 24 19 10 2.000000 
-0.264880 1.336330 55.979191 24 20 8 2.000000 
-0.264690 1.336390 55.980759 17 17 5 2.000000 
-0.268200 1.329530 55.980179 23 27 12 2.000000 
-0.268460 1.330740 55.980190 20 22 7 2.000000 
-0.267770 1.329590 55.983410 20 29 11 2.000000 
-0.267280 1.329700 55.984940 24 30 14 2.000000 
-0.268100 1.330770 55.985062 21 23 14 2.000000 
-0.265100 1.336290 55.982529 16 17 3 2.000000 
-0.266180 1.336080 55.984421 15 15 2 2.000000 
-0.265500 1.338240 55.984192 15 15 2 2.000000 
-0.266480 1.338050 55.986080 13 14 1 2.000000 
-0.268190 1.329530 55.981831 25 28 14 2.000000 
-0.268900 1.330620 55.981949 23 26 12 2.000000 
-0.268710 1.330650 55.983570 25 28 14 2.000000 
-0.269590 1.331800 55.982079 19 21 8 2.000000 
-0.269060 1.333470 55.983540 17 18 5 2.000000 
-0.270370 1.331640 55.983879 21 23 9 2.000000 
-0.270590 1.331600 55.985569 20 21 7 2.000000 
-0.271390 1.332990 55.985699 18 19 6 2.000000 
-0.267870 1.330800 55.986679 23 26 16 2.000000 
-0.267260 1.330930 55.988171 22 25 13 2.000000 
-0.268480 1.335610 55.986610 14 15 2 2.000000 
-0.266770 1.337960 55.987770 17 18 5 2.000000 
-0.267330 1.337870 55.989540 19 18 6 2.000000 
-0.267550 1.337790 55.991261 21 18 6 2.000000 
-0.270170 1.331700 55.987148 20 22 11 2.000000 
-0.269490 1.331800 55.988602 18 20 11 2.000000 
-0.271720 1.332940 55.987431 18 19 6 2.000000 
-0.269480 1.331790 55.990261 16 18 8 2.000000 
-0.270280 1.333220 55.990379 15 17 9 2.000000 
-0.271040 1.333080 55.988918 18 19 7 2.000000 
-0.270430 1.335190 55.988689 15 16 3 2.000000 
-0.270870 1.335110 55.990421 17 18 5 2.000000 
-0.265870 1.339960 55.985851 16 17 4 2.000000 
-0.266770 1.339780 55.987701 19 19 7 2.000000 
-0.265160 1.341970 55.987270 23 20 8 2.000000 
-0.266840 1.339770 55.989391 22 19 7 2.000000 
-0.266080 1.339920 55.990841 24 19 8 2.000000 
-0.267920 1.337730 55.992989 22 18 7 2.000000 
-0.268310 1.332040 55.991638 16 19 5 2.000000 
-0.269780 1.333290 55.991909 16 17 6 2.000000 
-0.269850 1.333280 55.993561 17 18 7 2.000000 
-0.271170 1.335060 55.992149 18 18 6 2.000000 
-0.271390 1.334990 55.993839 18 19 8 2.000000 
-0.265480 1.340040 55.992340 25 18 7 2.000000 
-0.264280 1.308730 56.024509 54 36 14 2.000000 
-0.245560 1.268720 56.194118 79 62 46 2.000000 
-0.247560 1.268370 56.196011 108 88 63 2.000000 
-0.284270 1.213760 56.197529 135 130 71 2.000000 
-0.284170 1.215400 56.197460 130 125 63 2.000000 
-0.283410 1.216800 56.197338 125 118 61 2.000000 
-0.281400 1.259410 56.194611 35 33 17 2.000000 
-0.283300 1.257680 56.196499 34 34 17 2.000000 
-0.287020 1.257050 56.195469 37 25 18 2.000000 
-0.282980 1.210750 56.202129 128 117 53 2.000000 
-0.281850 1.215750 56.198719 122 112 58 2.000000 
-0.283680 1.212210 56.199020 132 128 67 2.000000 
-0.284070 1.213780 56.199070 133 127 70 2.000000 
-0.282060 1.214080 56.200371 123 112 56 2.000000 
-0.281510 1.212530 56.201900 125 115 53 2.000000 
-0.281650 1.215770 56.200249 132 120 77 2.000000 
-0.283790 1.212190 56.200642 129 123 64 2.000000 
-0.280290 1.211190 56.203308 111 97 44 2.000000 
-0.282870 1.207500 56.203732 119 104 53 2.000000 
-0.283260 1.209030 56.203770 114 98 45 2.000000 
-0.282720 1.207520 56.205299 91 65 30 2.000000 
-0.277860 1.217670 56.199669 141 124 94 2.000000 
-0.275820 1.217920 56.216789 97 69 36 2.000000 
-0.277430 1.219270 56.216991 88 61 29 2.000000 
-0.278230 1.219150 56.215500 90 57 27 2.000000 
-0.270950 1.235240 56.217400 56 46 22 2.000000 
-0.271360 1.233630 56.217468 63 41 17 2.000000 
-0.272110 1.236500 56.217522 60 41 20 2.000000 
-0.273230 1.231630 56.219360 66 44 29 2.000000 
-0.273370 1.233320 56.219360 48 37 11 2.000000 
-0.272910 1.234900 56.219250 51 43 15 2.000000 
-0.274000 1.236210 56.219372 55 46 20 2.000000 
-0.276580 1.234300 56.221329 34 38 4 2.000000 
-0.276870 1.235730 56.221340 47 47 17 2.000000 
-0.278320 1.232480 56.221600 50 48 17 2.000000 
-0.316070 1.269240 56.023781 53 40 21 2.000000 
-0.319360 1.268630 56.022869 56 39 21 2.000000 
-0.371580 1.256280 56.018730 89 84 42 2.000000 
-0.284820 1.215310 56.195999 139 134 72 2.000000 
-0.285880 1.216430 56.196121 132 134 61 2.000000 
-0.285750 1.215150 56.202419 139 125 84 2.000000 
-0.285440 1.216480 56.202339 144 127 91 2.000000 
-0.289550 1.218960 56.201328 134 115 100 2.000000 
-0.294980 1.219390 56.200508 105 89 41 2.000000 
-0.286740 1.217870 56.202511 137 119 88 2.000000 
-0.288020 1.216080 56.204311 131 118 66 2.000000 
-0.289920 1.217380 56.204552 125 112 59 2.000000 
-0.289380 1.215870 56.206081 129 116 62 2.000000 
-0.290800 1.218770 56.203060 124 103 75 2.000000 
-0.292580 1.218490 56.204910 121 99 60 2.000000 
-0.292690 1.216960 56.206520 125 112 51 2.000000 
-0.294080 1.218220 56.206680 108 88 50 2.000000 
-0.296360 1.216390 56.197620 127 129 48 2.000000 
-0.297110 1.217790 56.199280 140 132 85 2.000000 
-0.299230 1.218710 56.199558 121 119 46 2.000000 
-0.301820 1.217040 56.198372 122 124 47 2.000000 
-0.290120 1.214430 56.207771 127 114 57 2.000000 
-0.293270 1.213950 56.209782 113 103 40 2.000000 
-0.294400 1.213770 56.211510 102 83 18 2.000000 
-0.287460 1.216140 56.212109 139 122 78 2.000000 
-0.291800 1.215490 56.207970 126 113 58 2.000000 
-0.294760 1.216600 56.208370 107 104 47 2.000000 
-0.295060 1.218070 56.208408 103 92 52 2.000000 
-0.295060 1.218060 56.209949 96 88 38 2.000000 
-0.294910 1.219370 56.209911 105 96 45 2.000000 
-0.285970 1.217940 56.215019 117 101 58 2.000000 
-0.287590 1.219210 56.216759 112 90 49 2.000000 
-0.290140 1.218830 56.215542 114 100 44 2.000000 
-0.293800 1.216760 56.214512 121 113 53 2.000000 
-0.293600 1.218310 56.214481 114 111 36 2.000000 
-0.296550 1.211810 56.213428 128 117 63 2.000000 
-0.298310 1.209900 56.215240 120 105 63 2.000000 
-0.298530 1.209860 56.216850 108 94 51 2.000000 
-0.294980 1.214970 56.210018 116 108 50 2.000000 
-0.295860 1.216430 56.210098 111 105 47 2.000000 
-0.294970 1.214960 56.211590 122 107 51 2.000000 
-0.296990 1.216250 56.211830 127 116 71 2.000000 
-0.295350 1.218010 56.211559 100 90 36 2.000000 
-0.296000 1.219200 56.211651 98 91 29 2.000000 
-0.296950 1.216250 56.213371 129 117 55 2.000000 
-0.295580 1.217970 56.213181 107 99 40 2.000000 
-0.296640 1.219090 56.213299 114 110 46 2.000000 
-0.297010 1.219030 56.214909 125 125 60 2.000000 
-0.296780 1.219060 56.216450 125 113 59 2.000000 
-0.287850 1.219160 56.218380 118 101 57 2.000000 
-0.294420 1.219420 56.217709 121 100 57 2.000000 
-0.294200 1.220840 56.219212 122 110 55 2.000000 
-0.291390 1.222850 56.221931 105 100 36 2.000000 
-0.291560 1.224220 56.221939 81 77 23 2.000000 
-0.296560 1.220490 56.217949 120 96 55 2.000000 
-0.323850 1.253270 55.900928 78 70 24 1.000000 
-0.324250 1.251970 55.902431 63 53 14 1.000000 
-0.325340 1.253520 55.905499 47 44 7 1.000000 
-0.324770 1.253670 55.911331 39 42 6 1.000000 
-0.325690 1.254700 55.911701 39 42 7 1.000000 
-0.325930 1.255490 55.912300 38 41 7 1.000000 
-0.324710 1.253430 55.912392 39 40 7 1.000000 
-0.316710 1.256600 55.908100 47 28 2 1.000000 
-0.317550 1.256420 55.910969 38 26 3 1.000000 
-0.324190 1.251730 55.903568 57 45 10 1.000000 
-0.324390 1.252360 55.905159 51 46 9 1.000000 
-0.324280 1.251950 55.904419 53 46 10 1.000000 
-0.321520 1.250020 55.903671 60 53 28 1.000000 
-0.323280 1.251140 55.902939 60 49 13 1.000000 
-0.322520 1.250940 55.903130 61 56 18 1.000000 
-0.323250 1.250920 55.904049 58 47 13 1.000000 
-0.322490 1.250770 55.904190 59 47 14 1.000000 
-0.323340 1.251250 55.904861 56 46 11 1.000000 
-0.322460 1.250560 55.905258 57 47 13 1.000000 
-0.323600 1.252180 55.907299 48 44 10 1.000000 
-0.324390 1.252280 55.906189 48 45 7 1.000000 
-0.323490 1.251770 55.906521 50 46 8 1.000000 
-0.324390 1.252310 55.907150 47 45 10 1.000000 
-0.321550 1.250110 55.905590 62 51 17 1.000000 
-0.321670 1.250410 55.906410 60 51 16 1.000000 
-0.320850 1.250480 55.906479 66 55 20 1.000000 
-0.322630 1.251210 55.906891 53 47 11 1.000000 
-0.321840 1.251090 55.907040 57 51 14 1.000000 
-0.322750 1.251570 55.907669 53 46 11 1.000000 
-0.321000 1.250970 55.907188 61 56 13 1.000000 
-0.323310 1.251090 55.905891 53 47 10 1.000000 
-0.322540 1.250880 55.906078 55 48 11 1.000000 
-0.316850 1.250690 55.903961 39 35 3 1.000000 
-0.318580 1.250710 55.907639 57 49 12 1.000000 
-0.316250 1.248310 55.906120 42 39 1 1.000000 
-0.319330 1.250310 55.903831 51 51 8 1.000000 
-0.320830 1.250370 55.903610 61 54 29 1.000000 
-0.320010 1.250220 55.903790 58 54 20 1.000000 
-0.320710 1.249960 55.904781 63 58 30 1.000000 
-0.318290 1.249840 55.904171 47 44 7 1.000000 
-0.319180 1.249710 55.905079 59 56 9 1.000000 
-0.319830 1.249370 55.905190 63 60 18 1.000000 
-0.321400 1.249560 55.904888 61 50 20 1.000000 
-0.317220 1.249120 55.904640 44 40 7 1.000000 
-0.320680 1.249790 55.905849 67 55 21 1.000000 
-0.319210 1.249770 55.906040 65 63 12 1.000000 
-0.318260 1.249540 55.906269 62 59 12 1.000000 
-0.319860 1.249540 55.906078 68 61 19 1.000000 
-0.320090 1.250330 55.906631 67 63 15 1.000000 
-0.320150 1.250630 55.907452 61 56 13 1.000000 
-0.319450 1.250700 55.907520 61 54 13 1.000000 
-0.319270 1.250070 55.906860 68 60 15 1.000000 
-0.318410 1.250090 55.906971 63 58 13 1.000000 
-0.318230 1.249430 55.905338 54 51 9 1.000000 
-0.316830 1.247540 55.906361 48 45 6 1.000000 
-0.317130 1.254890 55.909779 37 25 0 1.000000 
-0.319750 1.251790 55.908932 41 39 7 1.000000 
-0.319810 1.252040 55.909779 37 32 5 1.000000 
-0.317340 1.255600 55.910381 38 26 3 1.000000 
-0.317670 1.253680 55.911209 33 23 0 1.000000 
-0.318060 1.255180 55.912441 31 25 2 1.000000 
-0.318700 1.254670 55.912579 28 23 0 1.000000 
-0.317970 1.254800 55.911659 31 25 2 1.000000 
-0.318520 1.253930 55.911980 29 24 0 1.000000 
-0.320650 1.252440 55.911411 37 32 2 1.000000 
-0.318340 1.253300 55.911308 32 22 0 1.000000 
-0.319780 1.251930 55.910782 37 31 1 1.000000 
-0.320040 1.252830 55.912300 31 26 2 1.000000 
-0.320740 1.252710 55.912258 32 29 2 1.000000 
-0.319230 1.253120 55.912270 29 24 0 1.000000 
-0.319890 1.252290 55.911591 35 30 0 1.000000 
-0.319060 1.252440 55.911629 30 25 0 1.000000 
-0.324480 1.252740 55.907890 46 43 11 1.000000 
-0.323630 1.252350 55.908192 46 42 10 1.000000 
-0.324510 1.252830 55.909809 45 42 5 1.000000 
-0.323720 1.252570 55.909031 46 43 8 1.000000 
-0.322870 1.252120 55.909370 48 44 7 1.000000 
-0.323010 1.252550 55.910110 45 43 5 1.000000 
-0.323630 1.252300 55.910141 43 42 4 1.000000 
-0.324480 1.252660 55.908920 45 42 7 1.000000 
-0.321930 1.251470 55.907822 54 49 11 1.000000 
-0.322810 1.251760 55.908550 48 43 11 1.000000 
-0.321990 1.251610 55.908741 50 47 9 1.000000 
-0.321060 1.251220 55.908081 53 51 11 1.000000 
-0.321150 1.251490 55.908890 48 45 9 1.000000 
-0.322080 1.252000 55.909519 50 45 7 1.000000 
-0.321180 1.251550 55.909851 48 43 7 1.000000 
-0.320330 1.251260 55.910069 39 36 6 1.000000 
-0.324660 1.253260 55.910549 41 40 4 1.000000 
-0.322200 1.252430 55.911209 40 39 6 1.000000 
-0.323100 1.252830 55.910961 42 40 6 1.000000 
-0.323660 1.252350 55.911098 40 41 5 1.000000 
-0.323860 1.253010 55.911732 38 39 5 1.000000 
-0.323920 1.253250 55.912579 38 39 7 1.000000 
-0.322380 1.253060 55.911880 36 35 6 1.000000 
-0.323100 1.252860 55.911880 37 38 6 1.000000 
-0.321240 1.251850 55.910660 45 39 5 1.000000 
-0.321410 1.252420 55.911331 39 36 4 1.000000 
-0.322110 1.252000 55.910469 46 42 6 1.000000 
-0.320540 1.252030 55.910671 42 36 3 1.000000 
-0.321470 1.252670 55.912182 33 32 4 1.000000 
-0.316090 1.254250 55.908272 54 36 7 1.000000 
-0.316690 1.253110 55.908699 52 33 5 1.000000 
-0.316890 1.253940 55.909260 43 26 0 1.000000 
-0.317350 1.252420 55.908951 48 30 4 1.000000 
-0.318650 1.251070 55.908421 49 43 11 1.000000 
-0.316270 1.251560 55.908501 60 45 13 1.000000 
-0.317020 1.251160 55.908569 53 38 10 1.000000 
-0.317540 1.250300 55.907928 55 44 10 1.000000 
-0.317840 1.251360 55.908379 48 40 9 1.000000 
-0.317990 1.251910 55.909088 43 34 5 1.000000 
-0.317380 1.252580 55.909828 41 26 0 1.000000 
-0.318050 1.252210 55.909901 40 26 2 1.000000 
-0.318820 1.251700 55.909081 42 35 7 1.000000 
-0.318910 1.251970 55.909901 35 29 5 1.000000 
-0.314850 1.252270 55.908329 75 45 14 1.000000 
-0.315400 1.251520 55.908619 68 47 16 1.000000 
-0.316550 1.249330 55.908520 53 46 10 1.000000 
-0.315670 1.249120 55.908710 59 52 16 1.000000 
-0.317500 1.252990 55.910568 36 24 0 1.000000 
-0.318200 1.252760 55.910610 36 25 1 1.000000 
-0.318940 1.252080 55.910820 34 24 1 1.000000 
-0.319570 1.251110 55.908298 52 47 10 1.000000 
-0.320180 1.250690 55.908409 53 49 10 1.000000 
-0.320180 1.250660 55.909401 45 42 8 1.000000 
-0.317070 1.248460 55.907879 55 50 10 1.000000 
-0.325750 1.254810 55.913582 39 40 7 1.000000 
-0.325750 1.254790 55.914581 37 37 7 1.000000 
-0.324710 1.253300 55.915379 36 34 6 1.000000 
-0.318470 1.256680 55.914619 34 25 0 1.000000 
-0.321650 1.253270 55.913841 34 30 5 1.000000 
-0.321650 1.253300 55.914761 34 28 4 1.000000 
-0.318180 1.255530 55.913250 29 23 0 1.000000 
-0.318320 1.256080 55.913952 31 22 3 1.000000 
-0.318760 1.254810 55.913502 26 22 0 1.000000 
-0.318790 1.254920 55.914379 24 20 0 1.000000 
-0.319440 1.253920 55.913818 26 22 0 1.000000 
-0.320070 1.252940 55.913181 31 27 2 1.000000 
-0.320770 1.252770 55.913181 33 29 4 1.000000 
-0.320920 1.253310 55.913879 33 28 3 1.000000 
-0.319290 1.253430 55.913078 28 23 0 1.000000 
-0.319500 1.254110 55.914669 25 19 0 1.000000 
-0.320180 1.253300 55.914001 29 25 0 1.000000 
-0.320950 1.253420 55.914810 32 27 2 1.000000 
-0.320240 1.253550 55.914848 29 23 1 1.000000 
-0.318780 1.254840 55.915421 27 20 0 1.000000 
-0.319470 1.253950 55.915699 26 20 2 1.000000 
-0.320210 1.253440 55.915878 28 22 4 1.000000 
-0.323160 1.253100 55.912769 36 35 6 1.000000 
-0.323250 1.253380 55.913582 36 32 5 1.000000 
-0.323950 1.253360 55.913502 37 35 6 1.000000 
-0.324630 1.253160 55.913502 38 38 7 1.000000 
-0.322370 1.252980 55.912922 33 32 6 1.000000 
-0.322370 1.253010 55.913879 35 30 5 1.000000 
-0.323220 1.253160 55.914650 35 31 5 1.000000 
-0.324590 1.252890 55.914600 37 37 7 1.000000 
-0.323830 1.252790 55.914749 36 34 5 1.000000 
-0.322430 1.253150 55.914761 34 30 5 1.000000 
-0.321530 1.252920 55.913029 31 31 4 1.000000 
-0.323190 1.253000 55.915680 34 30 5 1.000000 
-0.323770 1.252600 55.915821 35 32 5 1.000000 
-0.322430 1.253070 55.915760 33 29 4 1.000000 
-0.316770 1.247340 55.907429 54 50 8 1.000000 
-0.316010 1.247250 55.907581 48 44 5 1.000000 
-0.313260 1.248900 55.910080 76 47 18 1.000000 
-0.314720 1.248840 55.908970 64 50 15 1.000000 
-0.313510 1.247030 55.909908 68 48 14 1.000000 
-0.316070 1.247550 55.908401 53 49 9 1.000000 
-0.314990 1.246500 55.909019 55 50 11 1.000000 
-0.330970 1.258450 56.065010 118 107 34 1.000000 
-0.331000 1.258450 56.065891 117 107 29 1.000000 
-0.331030 1.258450 56.066780 116 105 26 1.000000 
-0.330970 1.258380 56.067692 112 101 20 1.000000 
-0.330940 1.258110 56.068680 115 104 25 1.000000 
-0.330960 1.258160 56.069569 117 107 29 1.000000 
-0.330970 1.258250 56.070450 116 106 28 1.000000 
-0.331860 1.258070 56.071289 120 111 30 1.000000 
-0.330870 1.257760 56.071510 118 107 28 1.000000 
-0.331740 1.257660 56.072350 125 116 41 1.000000 
-0.331740 1.257580 56.073269 120 113 41 1.000000 
-0.330730 1.257270 56.072571 119 110 35 1.000000 
-0.330640 1.256950 56.073559 116 109 31 1.000000 
-0.331620 1.257180 56.074291 117 114 29 1.000000 
-0.332630 1.257690 56.075802 128 123 43 1.000000 
-0.331590 1.256960 56.075249 119 117 24 1.000000 
-0.332600 1.257470 56.076752 128 121 39 1.000000 
-0.331610 1.257020 56.076130 122 120 36 1.000000 
-0.331640 1.257080 56.076969 121 115 35 1.000000 
-0.332570 1.257420 56.077671 126 120 31 1.000000 
-0.331590 1.256950 56.077930 123 117 35 1.000000 
-0.332540 1.257260 56.078629 122 119 24 1.000000 
-0.332570 1.257260 56.079510 132 128 41 1.000000 
-0.331610 1.256950 56.078812 123 116 26 1.000000 
-0.328750 1.259440 55.929539 36 38 2 1.000000 
-0.328540 1.258570 55.930931 44 40 7 1.000000 
-0.328510 1.258400 55.931961 47 44 11 1.000000 
-0.327280 1.257050 55.930740 36 36 0 1.000000 
-0.327080 1.256180 55.932129 46 43 9 1.000000 
-0.326110 1.255650 55.931499 45 41 5 1.000000 
-0.328420 1.258080 55.933071 43 45 6 1.000000 
-0.327430 1.257380 55.933472 49 44 3 1.000000 
-0.328300 1.257500 55.934280 45 45 8 1.000000 
-0.327460 1.257600 55.934319 64 61 21 1.000000 
-0.329350 1.258750 55.935539 35 42 11 1.000000 
-0.329290 1.258450 55.936642 43 48 11 1.000000 
-0.328410 1.257860 55.935051 53 49 14 1.000000 
-0.328500 1.258300 55.935829 62 59 20 1.000000 
-0.327580 1.258010 55.935101 84 75 33 1.000000 
-0.327600 1.257960 55.936089 89 85 38 1.000000 
-0.328530 1.258300 55.936790 71 74 27 1.000000 
-0.327600 1.257990 55.937050 88 87 35 1.000000 
-0.326590 1.257400 55.936459 86 86 32 1.000000 
-0.327310 1.257030 55.932690 53 44 15 1.000000 
-0.326230 1.256120 55.934158 73 69 35 1.000000 
-0.326350 1.256580 55.934898 82 83 35 1.000000 
-0.326530 1.257160 55.935570 93 90 39 1.000000 
-0.325460 1.255590 55.936409 84 82 29 1.000000 
-0.328410 1.257840 55.937931 80 86 35 1.000000 
-0.327570 1.257940 55.938011 86 89 34 1.000000 
-0.326470 1.256830 55.937672 81 80 28 1.000000 
-0.329940 1.257350 56.067242 115 104 24 1.000000 
-0.330000 1.257490 56.068089 113 101 21 1.000000 
-0.330000 1.257410 56.069012 115 104 25 1.000000 
-0.328940 1.256120 56.069550 119 109 32 1.000000 
-0.322650 1.258470 56.072021 38 25 0 1.000000 
-0.329970 1.257360 56.069931 117 106 27 1.000000 
-0.329940 1.257150 56.070881 118 111 22 1.000000 
-0.328940 1.256210 56.070389 122 115 33 1.000000 
-0.328940 1.256130 56.071308 120 114 29 1.000000 
-0.328970 1.256240 56.072159 117 110 25 1.000000 
-0.327980 1.255680 56.071571 117 111 35 1.000000 
-0.328070 1.256010 56.072338 113 106 31 1.000000 
-0.328970 1.256160 56.073078 122 113 30 1.000000 
-0.328100 1.256120 56.073189 117 108 38 1.000000 
-0.329940 1.257050 56.074478 121 116 28 1.000000 
-0.328940 1.256050 56.074032 122 115 34 1.000000 
-0.324660 1.257290 56.073101 37 32 0 1.000000 
-0.325230 1.256510 56.073311 42 34 0 1.000000 
-0.325230 1.256490 56.074188 50 35 2 1.000000 
-0.324450 1.256420 56.074310 36 31 0 1.000000 
-0.326520 1.255880 56.073410 87 71 20 1.000000 
-0.327170 1.255780 56.072491 100 91 25 1.000000 
-0.327200 1.255790 56.073372 98 88 25 1.000000 
-0.326400 1.255420 56.072670 83 70 13 1.000000 
-0.328040 1.255830 56.074181 115 103 32 1.000000 
-0.327140 1.255650 56.074322 100 80 27 1.000000 
-0.325700 1.255460 56.073631 63 47 12 1.000000 
-0.325820 1.255930 56.074329 67 44 11 1.000000 
-0.326490 1.255670 56.074360 86 63 22 1.000000 
-0.329880 1.256960 56.071869 116 107 14 1.000000 
-0.327600 1.254210 56.071178 118 110 34 1.000000 
-0.329880 1.256940 56.072750 119 111 26 1.000000 
-0.329910 1.256940 56.073631 119 113 28 1.000000 
-0.330580 1.256650 56.074551 114 110 21 1.000000 
-0.322850 1.256360 56.072689 39 20 0 1.000000 
-0.323580 1.256240 56.073570 30 24 0 1.000000 
-0.324880 1.255170 56.072891 40 34 0 1.000000 
-0.325460 1.254610 56.073029 59 49 7 1.000000 
-0.323940 1.254480 56.073219 37 30 0 1.000000 
-0.322430 1.254650 56.074181 35 23 0 1.000000 
-0.326580 1.253520 56.072392 106 96 29 1.000000 
-0.329880 1.256920 56.075432 120 116 32 1.000000 
-0.329030 1.256380 56.074810 123 117 33 1.000000 
-0.329060 1.256500 56.075649 122 117 37 1.000000 
-0.328070 1.255970 56.075909 117 102 29 1.000000 
-0.325150 1.256160 56.075218 46 34 3 1.000000 
-0.326550 1.255860 56.075169 82 62 20 1.000000 
-0.328060 1.255830 56.075062 114 105 26 1.000000 
-0.327200 1.255850 56.075142 100 80 24 1.000000 
-0.325850 1.256040 56.075180 60 43 11 1.000000 
-0.327200 1.255770 56.076050 105 85 27 1.000000 
-0.327220 1.255830 56.076900 104 81 27 1.000000 
-0.328010 1.255670 56.076889 121 101 29 1.000000 
-0.325760 1.255660 56.076199 61 48 15 1.000000 
-0.326460 1.255590 56.076160 90 70 27 1.000000 
-0.328060 1.255810 56.077740 114 96 26 1.000000 
-0.327170 1.255690 56.077850 97 72 25 1.000000 
-0.326370 1.255050 56.077259 84 64 23 1.000000 
-0.326280 1.254840 56.078209 77 55 17 1.000000 
-0.327980 1.255540 56.078732 111 99 30 1.000000 
-0.326930 1.254690 56.079090 96 78 29 1.000000 
-0.330600 1.256710 56.075432 115 113 19 1.000000 
-0.330520 1.256390 56.076420 117 114 27 1.000000 
-0.329790 1.256430 56.076488 119 116 32 1.000000 
-0.328880 1.255820 56.076778 121 114 40 1.000000 
-0.330480 1.256230 56.077370 115 111 29 1.000000 
-0.330510 1.256280 56.078251 119 113 35 1.000000 
-0.329640 1.255830 56.077591 119 116 32 1.000000 
-0.328780 1.255330 56.077808 126 115 25 1.000000 
-0.329690 1.256030 56.078400 125 118 28 1.000000 
-0.330570 1.256480 56.079060 120 116 34 1.000000 
-0.329780 1.256410 56.079140 125 120 35 1.000000 
-0.328840 1.255580 56.078621 124 115 29 1.000000 
-0.328840 1.255450 56.079571 123 116 32 1.000000 
-0.324970 1.255430 56.076351 41 37 0 1.000000 
-0.325490 1.254630 56.077480 56 42 7 1.000000 
-0.333470 1.257550 56.081089 141 130 45 1.000000 
-0.333440 1.257340 56.082081 143 126 53 1.000000 
-0.332540 1.257160 56.080429 132 125 39 1.000000 
-0.331580 1.256790 56.079762 124 118 27 1.000000 
-0.331580 1.256710 56.080681 122 119 35 1.000000 
-0.332510 1.257110 56.081341 127 119 37 1.000000 
-0.331640 1.256960 56.081459 119 117 32 1.000000 
-0.330600 1.256600 56.081669 124 122 32 1.000000 
-0.334340 1.257760 56.084511 136 132 43 1.000000 
-0.332480 1.256940 56.082298 122 119 36 1.000000 
-0.333320 1.256990 56.083069 128 125 38 1.000000 
-0.332540 1.257080 56.083149 122 119 32 1.000000 
-0.331550 1.256640 56.082481 121 119 28 1.000000 
-0.333380 1.257120 56.083912 127 125 40 1.000000 
-0.332560 1.257200 56.083988 123 120 41 1.000000 
-0.331580 1.256750 56.083328 121 120 27 1.000000 
-0.331580 1.256720 56.084209 126 122 41 1.000000 
-0.335420 1.258710 56.085911 143 135 47 1.000000 
-0.338630 1.261690 56.087341 136 126 44 1.000000 
-0.339120 1.260800 56.088428 132 123 36 1.000000 
-0.338210 1.260030 56.088749 138 129 47 1.000000 
-0.335440 1.258740 56.087681 141 134 49 1.000000 
-0.335530 1.259070 56.088451 141 135 52 1.000000 
-0.335470 1.258770 56.089401 140 135 53 1.000000 
-0.336380 1.259320 56.087391 141 132 47 1.000000 
-0.337390 1.259910 56.087978 140 130 49 1.000000 
-0.337240 1.259200 56.089111 146 136 52 1.000000 
-0.336260 1.258920 56.088409 143 134 52 1.000000 
-0.336230 1.258700 56.089359 143 135 54 1.000000 
-0.334400 1.257900 56.085350 137 133 45 1.000000 
-0.333520 1.257620 56.084621 127 125 43 1.000000 
-0.333610 1.257890 56.085430 131 126 44 1.000000 
-0.334430 1.258020 56.086201 139 134 48 1.000000 
-0.333520 1.257680 56.086380 131 127 42 1.000000 
-0.335330 1.258330 56.086899 142 134 47 1.000000 
-0.332590 1.257310 56.084801 124 121 44 1.000000 
-0.332590 1.257230 56.085720 126 123 39 1.000000 
-0.331520 1.256370 56.085232 128 124 46 1.000000 
-0.332450 1.256740 56.086781 129 126 35 1.000000 
-0.331460 1.256240 56.086151 129 125 39 1.000000 
-0.334450 1.258070 56.087078 139 134 45 1.000000 
-0.334480 1.258240 56.087891 138 133 47 1.000000 
-0.333550 1.257740 56.087269 132 129 38 1.000000 
-0.334400 1.257920 56.088879 138 133 48 1.000000 
-0.333490 1.257440 56.088249 131 129 38 1.000000 
-0.333430 1.257140 56.089199 134 129 43 1.000000 
-0.331430 1.256080 56.087101 133 129 36 1.000000 
-0.332350 1.256310 56.087799 131 128 30 1.000000 
-0.331400 1.255920 56.088020 132 127 40 1.000000 
-0.332560 1.257020 56.088428 128 126 29 1.000000 
-0.332560 1.257050 56.089352 130 128 31 1.000000 
-0.331400 1.255840 56.088940 134 129 34 1.000000 
-0.340070 1.260780 56.093681 146 125 64 1.000000 
-0.339330 1.261460 56.095299 151 132 76 1.000000 
-0.338090 1.259680 56.089771 139 129 45 1.000000 
-0.338210 1.259980 56.090549 135 125 35 1.000000 
-0.337420 1.259860 56.090660 140 131 43 1.000000 
-0.338890 1.259910 56.089630 133 124 37 1.000000 
-0.338910 1.260020 56.090469 134 123 31 1.000000 
-0.338180 1.259930 56.091469 136 124 37 1.000000 
-0.337450 1.259920 56.091541 142 129 46 1.000000 
-0.338850 1.259730 56.091461 127 117 22 1.000000 
-0.335440 1.258670 56.090321 135 129 37 1.000000 
-0.336430 1.259360 56.091801 143 131 48 1.000000 
-0.335440 1.258590 56.091240 142 134 43 1.000000 
-0.337330 1.259530 56.089890 145 135 50 1.000000 
-0.336260 1.258820 56.090210 139 132 40 1.000000 
-0.336290 1.258930 56.091061 144 134 46 1.000000 
-0.339000 1.260300 56.093048 145 125 53 1.000000 
-0.338210 1.260040 56.092312 140 126 43 1.000000 
-0.338240 1.260100 56.093201 146 129 57 1.000000 
-0.338910 1.259920 56.092270 136 118 40 1.000000 
-0.339060 1.260500 56.093861 151 131 70 1.000000 
-0.338210 1.260000 56.094082 156 139 73 1.000000 
-0.337450 1.259850 56.094231 152 135 70 1.000000 
-0.336410 1.259370 56.092682 143 132 50 1.000000 
-0.335410 1.258480 56.092159 145 134 52 1.000000 
-0.335470 1.258680 56.092972 140 132 46 1.000000 
-0.335380 1.258350 56.093990 139 131 35 1.000000 
-0.337390 1.259680 56.092499 146 130 53 1.000000 
-0.337390 1.259650 56.093380 150 133 62 1.000000 
-0.336280 1.258800 56.093739 145 134 52 1.000000 
-0.334390 1.257870 56.090679 133 129 48 1.000000 
-0.334330 1.257620 56.089870 138 133 51 1.000000 
-0.333520 1.257420 56.090019 131 128 42 1.000000 
-0.334390 1.257790 56.091599 139 130 43 1.000000 
-0.333490 1.257260 56.090969 133 130 45 1.000000 
-0.333430 1.257130 56.091888 135 130 45 1.000000 
-0.332560 1.257080 56.090199 133 131 37 1.000000 
-0.331390 1.255820 56.089821 134 132 33 1.000000 
-0.331510 1.256280 56.090561 131 128 31 1.000000 
-0.332500 1.256730 56.091221 132 129 35 1.000000 
-0.331450 1.255990 56.091549 131 126 32 1.000000 
-0.334420 1.257850 56.092442 139 130 46 1.000000 
-0.333480 1.257210 56.092731 135 127 45 1.000000 
-0.334450 1.258010 56.093288 137 130 39 1.000000 
-0.334360 1.257580 56.094311 140 132 35 1.000000 
-0.332320 1.256050 56.092319 132 128 30 1.000000 
-0.333340 1.256670 56.093788 133 126 36 1.000000 
-0.332290 1.255950 56.093231 136 126 45 1.000000 
-0.331390 1.255780 56.093380 136 128 34 1.000000 
-0.332320 1.256010 56.094120 135 128 36 1.000000 
-0.331390 1.255810 56.094261 136 128 30 1.000000 
-0.337650 1.260450 56.096661 140 130 46 1.000000 
-0.339090 1.260610 56.094711 152 133 76 1.000000 
-0.338440 1.260710 56.095631 150 133 70 1.000000 
-0.338290 1.260160 56.094921 154 136 77 1.000000 
-0.337480 1.259960 56.095070 153 136 66 1.000000 
-0.338590 1.261250 56.096329 148 132 62 1.000000 
-0.337530 1.260150 56.095879 145 131 55 1.000000 
-0.336400 1.259270 56.094479 145 131 51 1.000000 
-0.335380 1.258380 56.094841 137 129 31 1.000000 
-0.335380 1.258360 56.095749 136 127 34 1.000000 
-0.335380 1.258280 56.096668 133 125 34 1.000000 
-0.336370 1.259110 56.095428 144 131 46 1.000000 
-0.336160 1.258290 56.096600 138 128 39 1.000000 
-0.337940 1.261550 56.098068 135 120 41 1.000000 
-0.337710 1.260760 56.097431 138 124 46 1.000000 
-0.336520 1.259470 56.098808 129 127 36 1.000000 
-0.336160 1.258270 56.097481 135 127 40 1.000000 
-0.336340 1.258900 56.098148 131 124 39 1.000000 
-0.334270 1.257260 56.095299 136 128 26 1.000000 
-0.334270 1.257230 56.096180 136 128 36 1.000000 
-0.332350 1.256120 56.094959 138 129 34 1.000000 
-0.331420 1.255810 56.095150 139 124 39 1.000000 
-0.332350 1.256090 56.095840 137 129 38 1.000000 
-0.332320 1.255930 56.096760 138 134 44 1.000000 
-0.333160 1.256050 56.094891 137 129 33 1.000000 
-0.333130 1.255890 56.095840 137 128 34 1.000000 
-0.333160 1.256000 56.096691 140 132 44 1.000000 
-0.334240 1.257110 56.097980 132 124 42 1.000000 
-0.334270 1.257220 56.098831 135 124 46 1.000000 
-0.335350 1.258120 56.097591 132 125 38 1.000000 
-0.334150 1.256720 56.097240 131 124 34 1.000000 
-0.335290 1.257880 56.098541 131 124 41 1.000000 
-0.330610 1.256160 56.096840 109 100 35 1.000000 
-0.330640 1.256270 56.097691 113 101 40 1.000000 
-0.331450 1.255950 56.096840 130 121 45 1.000000 
-0.332320 1.255910 56.097641 140 128 50 1.000000 
-0.331500 1.255980 56.097721 133 118 50 1.000000 
-0.331530 1.256090 56.098572 121 108 32 1.000000 
-0.332280 1.255700 56.098591 140 125 49 1.000000 
-0.333130 1.255840 56.097599 143 132 57 1.000000 
-0.333160 1.255950 56.098450 143 129 55 1.000000 
-0.336600 1.259800 56.099590 131 123 34 1.000000 
-0.336570 1.259640 56.100540 130 122 35 1.000000 
-0.330060 1.256890 56.099312 77 75 21 1.000000 
-0.330060 1.256870 56.100189 77 72 19 1.000000 
-0.330120 1.257120 56.101009 73 69 15 1.000000 
-0.329650 1.258060 56.102531 75 81 30 1.000000 
-0.330270 1.257550 56.101749 65 66 11 1.000000 
-0.330150 1.257150 56.102730 59 70 13 1.000000 
-0.329620 1.257900 56.103439 83 84 35 1.000000 
-0.330230 1.257320 56.103580 79 79 30 1.000000 
