ply
format ascii 1.0
comment Created by CloudCompare v2.14.alpha (Sep 13 2025)
comment Created 2025-11-28T18:45:56
obj_info Generated by CloudCompare!
element vertex 978
property float x
property float y
property float z
property uchar red
property uchar green
property uchar blue
property float scalar_label
end_header
-0.995070 1.438670 56.359669 53 60 21 2.000000 
-0.994760 1.439870 56.359711 56 59 23 2.000000 
-0.994860 1.439850 56.360859 67 73 26 2.000000 
-0.995310 1.438660 56.362011 60 72 33 2.000000 
-0.994430 1.439840 56.362080 63 68 28 2.000000 
-0.995050 1.438660 56.363239 59 69 20 2.000000 
-0.994450 1.439860 56.363281 57 63 23 2.000000 
-0.993120 1.437490 56.363350 61 75 37 2.000000 
-0.991930 1.441060 56.362320 58 62 24 2.000000 
-0.991740 1.441040 56.363499 50 55 25 2.000000 
-0.991520 1.436400 56.363461 60 67 24 2.000000 
-0.998210 1.433510 56.364101 61 69 26 2.000000 
-0.996620 1.434900 56.364231 72 80 30 2.000000 
-0.996350 1.434910 56.365459 79 90 35 2.000000 
-0.996890 1.434840 56.366581 78 89 41 2.000000 
-0.997310 1.434810 56.367741 85 95 35 2.000000 
-0.995900 1.437310 56.366699 60 71 22 2.000000 
-0.995180 1.437330 56.367950 62 73 33 2.000000 
-0.995760 1.436160 56.366692 66 80 29 2.000000 
-0.995860 1.436140 56.367882 63 82 34 2.000000 
-0.996850 1.433580 56.365379 71 83 29 2.000000 
-0.995120 1.433640 56.366730 82 93 40 2.000000 
-0.994850 1.433650 56.367920 87 99 39 2.000000 
-0.995150 1.438640 56.364391 58 61 17 2.000000 
-0.994710 1.439820 56.364471 55 64 20 2.000000 
-0.995250 1.438630 56.365589 51 56 12 2.000000 
-0.994950 1.437380 56.365608 65 73 21 2.000000 
-0.994270 1.439810 56.365688 53 56 21 2.000000 
-0.993460 1.437460 56.364498 63 71 25 2.000000 
-0.993950 1.436250 56.365662 74 86 28 2.000000 
-0.991780 1.441020 56.365891 46 53 20 2.000000 
-0.994370 1.438670 56.366840 59 66 21 2.000000 
-0.993400 1.439850 56.366940 56 58 19 2.000000 
-0.993370 1.438680 56.368092 64 68 33 2.000000 
-0.990000 1.436500 56.364780 73 84 32 2.000000 
-0.994110 1.409670 56.349789 57 71 18 2.000000 
-0.991640 1.414990 56.351292 48 54 22 2.000000 
-0.994200 1.409610 56.353359 79 88 35 2.000000 
-0.989870 1.410880 56.352558 49 61 19 2.000000 
-0.994470 1.418100 56.354671 104 104 69 2.000000 
-0.993620 1.404000 56.350960 69 77 29 2.000000 
-0.997080 1.404970 56.353069 96 102 54 2.000000 
-0.996170 1.405020 56.351940 81 93 45 2.000000 
-0.995410 1.406260 56.353199 100 112 55 2.000000 
-0.992580 1.408460 56.349899 72 80 29 2.000000 
-0.991960 1.405340 56.351089 62 66 23 2.000000 
-0.989460 1.407730 56.350140 82 86 39 2.000000 
-0.989460 1.406700 56.350128 80 93 37 2.000000 
-0.988870 1.405570 56.350151 63 73 27 2.000000 
-0.992050 1.408470 56.352310 57 68 23 2.000000 
-0.991920 1.407530 56.352341 65 72 28 2.000000 
-0.992000 1.406500 56.352291 63 81 34 2.000000 
-0.989470 1.406670 56.351330 55 64 20 2.000000 
-0.989110 1.404370 56.348961 76 84 40 2.000000 
-0.988930 1.403140 56.350128 63 69 23 2.000000 
-0.988430 1.404380 56.350170 54 62 17 2.000000 
-0.987850 1.401980 56.349030 56 67 28 2.000000 
-0.987940 1.403230 56.349041 62 68 24 2.000000 
-0.997910 1.404900 56.354198 96 99 44 2.000000 
-0.995410 1.403840 56.354370 86 92 37 2.000000 
-0.995500 1.407250 56.356789 115 117 65 2.000000 
-0.994890 1.401440 56.354382 104 111 68 2.000000 
-0.993730 1.402780 56.354481 100 106 55 2.000000 
-0.989220 1.405470 56.357269 110 121 61 2.000000 
-0.991510 1.404110 56.355881 87 104 50 2.000000 
-0.991520 1.402910 56.355862 90 100 36 2.000000 
-0.990730 1.418350 56.353760 65 64 30 2.000000 
-0.991180 1.417420 56.353722 59 64 24 2.000000 
-0.991050 1.416190 56.353710 63 76 23 2.000000 
-0.989870 1.417520 56.352661 51 56 23 2.000000 
-0.990160 1.419820 56.353840 61 61 24 2.000000 
-0.989410 1.421100 56.352718 43 48 19 2.000000 
-0.989130 1.419890 56.352741 49 51 18 2.000000 
-0.989410 1.418450 56.352699 49 54 19 2.000000 
-0.989200 1.416290 56.352669 52 60 22 2.000000 
-0.990360 1.413980 56.351372 42 49 13 2.000000 
-0.990860 1.413920 56.352489 55 59 21 2.000000 
-0.989560 1.415110 56.352631 50 55 14 2.000000 
-0.989020 1.411910 56.351440 48 58 20 2.000000 
-0.988610 1.411000 56.351460 51 60 22 2.000000 
-0.988600 1.413120 56.351479 42 51 13 2.000000 
-0.990490 1.419750 56.354988 79 71 25 2.000000 
-0.988760 1.410030 56.351421 52 58 19 2.000000 
-0.988810 1.408720 56.351410 53 59 22 2.000000 
-0.988930 1.409980 56.352612 55 64 18 2.000000 
-0.988470 1.407780 56.351429 53 61 21 2.000000 
-0.986530 1.404450 56.357441 111 125 66 2.000000 
-0.989250 1.405420 56.359612 127 130 38 2.000000 
-0.985440 1.405700 56.358730 130 141 59 2.000000 
-0.997340 1.434820 56.368931 82 95 34 2.000000 
-0.995150 1.436160 56.369141 61 75 26 2.000000 
-0.995610 1.434880 56.370251 77 89 29 2.000000 
-0.994530 1.436170 56.371540 73 76 31 2.000000 
-0.995250 1.436140 56.372669 68 68 33 2.000000 
-0.997130 1.433520 56.370110 77 89 32 2.000000 
-0.993760 1.438670 56.369251 45 46 24 2.000000 
-0.993250 1.438690 56.370468 46 49 22 2.000000 
-0.994100 1.437370 56.369202 52 59 25 2.000000 
-0.994480 1.437320 56.370361 54 56 20 2.000000 
-0.994270 1.436210 56.370392 65 71 20 2.000000 
-0.994420 1.437330 56.371552 65 66 27 2.000000 
-0.993790 1.437360 56.372810 61 57 27 2.000000 
-0.993950 1.434950 56.371559 72 81 28 2.000000 
-0.993570 1.434960 56.372780 63 68 26 2.000000 
-0.994780 1.436150 56.373890 56 62 19 2.000000 
-0.994420 1.434910 56.375099 50 63 21 2.000000 
-0.994710 1.434850 56.376259 55 68 20 2.000000 
-0.994290 1.434880 56.377480 71 92 16 2.000000 
-0.994180 1.433660 56.373901 59 68 34 2.000000 
-0.994500 1.432370 56.376240 52 50 22 2.000000 
-0.993930 1.433640 56.376308 54 53 23 2.000000 
-0.994430 1.433580 56.377441 70 85 14 2.000000 
-0.993870 1.432400 56.377449 51 56 12 2.000000 
-0.993650 1.429860 56.378620 55 68 26 2.000000 
-0.993220 1.431210 56.377510 56 60 23 2.000000 
-0.994030 1.436190 56.375149 52 68 18 2.000000 
-0.994650 1.437240 56.378658 52 60 21 2.000000 
-0.993990 1.436140 56.376339 58 76 20 2.000000 
-0.994210 1.436110 56.377491 57 74 17 2.000000 
-0.993840 1.434960 56.373940 53 60 22 2.000000 
-0.993330 1.433650 56.375149 54 58 29 2.000000 
-0.996820 1.428510 56.379589 77 88 29 2.000000 
-0.997730 1.433350 56.383141 94 104 35 2.000000 
-0.993220 1.429880 56.379841 61 71 25 2.000000 
-0.994240 1.429780 56.380970 98 106 29 2.000000 
-0.993600 1.431160 56.381008 82 91 13 2.000000 
-0.995400 1.433480 56.382141 83 88 29 2.000000 
-0.994180 1.432320 56.382179 98 110 26 2.000000 
-0.995050 1.432280 56.383308 90 103 17 2.000000 
-0.994270 1.431120 56.382179 113 125 26 2.000000 
-0.993940 1.429800 56.382160 120 134 30 2.000000 
-0.993880 1.431130 56.383362 110 124 18 2.000000 
-0.993310 1.429830 56.383411 118 129 18 2.000000 
-0.994130 1.439670 56.379902 43 36 21 2.000000 
-0.993630 1.438550 56.379921 39 38 15 2.000000 
-0.993100 1.436170 56.378738 63 72 20 2.000000 
-0.992970 1.437320 56.379978 37 43 14 2.000000 
-0.993190 1.437300 56.381130 42 43 18 2.000000 
-0.991900 1.436220 56.380020 41 45 16 2.000000 
-0.990910 1.439880 56.378960 39 44 22 2.000000 
-0.992760 1.438590 56.381180 46 38 18 2.000000 
-0.993330 1.434920 56.378731 65 80 17 2.000000 
-0.993260 1.433620 56.378719 80 98 21 2.000000 
-0.992940 1.433630 56.381100 63 57 25 2.000000 
-0.991730 1.435000 56.380009 51 53 20 2.000000 
-0.991300 1.433730 56.380032 56 57 12 2.000000 
-0.991610 1.432500 56.378792 70 79 22 2.000000 
-0.992120 1.431300 56.378761 47 55 18 2.000000 
-0.992130 1.431280 56.379951 59 63 24 2.000000 
-0.990650 1.432540 56.380039 64 65 18 2.000000 
-0.992560 1.434940 56.381142 52 47 20 2.000000 
-0.992210 1.432430 56.381149 71 72 17 2.000000 
-0.996090 1.432210 56.384449 87 106 19 2.000000 
-0.995660 1.431000 56.385620 105 118 28 2.000000 
-0.994070 1.431120 56.384548 112 126 29 2.000000 
-0.993170 1.429830 56.384602 118 128 23 2.000000 
-0.993550 1.429780 56.385761 119 131 30 2.000000 
-0.994650 1.429710 56.388050 104 113 22 2.000000 
-0.993970 1.429750 56.386921 116 123 19 2.000000 
-0.995860 1.428550 56.380840 105 116 35 2.000000 
-0.992810 1.428670 56.385780 119 127 27 2.000000 
-0.992730 1.428640 56.386971 117 126 25 2.000000 
-0.992830 1.428620 56.388161 113 122 24 2.000000 
-0.982310 1.417790 56.368622 119 127 70 2.000000 
-0.981800 1.417810 56.369839 115 120 60 2.000000 
-0.991050 1.440200 56.345772 56 59 24 2.000000 
-0.989960 1.441300 56.345879 41 46 13 2.000000 
-0.990270 1.441280 56.347031 42 49 13 2.000000 
-0.989350 1.440240 56.347092 41 45 10 2.000000 
-0.989910 1.437800 56.348190 44 46 11 2.000000 
-0.972710 1.399470 56.310139 35 46 20 2.000000 
-0.972150 1.398000 56.310162 42 55 15 2.000000 
-0.954270 1.387560 56.327061 112 113 72 2.000000 
-0.935430 1.398210 56.312851 79 86 49 2.000000 
-0.936320 1.394510 56.316170 70 84 52 2.000000 
-0.937860 1.393340 56.317150 97 106 73 2.000000 
-0.936350 1.394530 56.317329 78 81 52 2.000000 
-0.934810 1.397150 56.314060 63 68 37 2.000000 
-0.933950 1.398290 56.314171 66 73 38 2.000000 
-0.933490 1.397210 56.315338 59 66 37 2.000000 
-0.934990 1.395900 56.315159 67 78 45 2.000000 
-0.935090 1.395880 56.316319 57 70 37 2.000000 
-0.935070 1.395870 56.317471 56 66 38 2.000000 
-0.941720 1.390960 56.321362 132 141 113 2.000000 
-0.941980 1.390920 56.322472 132 137 111 2.000000 
-0.940250 1.392070 56.322681 130 133 106 2.000000 
-0.946500 1.389280 56.327808 130 131 98 2.000000 
-0.942390 1.390850 56.323601 130 129 103 2.000000 
-0.942580 1.390840 56.324749 131 136 108 2.000000 
-0.940710 1.391970 56.324959 113 121 94 2.000000 
-0.942350 1.390830 56.325939 133 134 110 2.000000 
-0.944810 1.390630 56.328018 134 140 108 2.000000 
-0.943180 1.390770 56.327030 133 135 101 2.000000 
-0.941660 1.391900 56.326012 123 130 104 2.000000 
-0.941880 1.391870 56.327171 137 143 113 2.000000 
-0.939190 1.392180 56.319321 115 122 91 2.000000 
-0.939600 1.392120 56.320400 121 131 97 2.000000 
-0.937650 1.393360 56.318340 112 120 89 2.000000 
-0.936850 1.394470 56.318409 82 84 57 2.000000 
-0.937320 1.394430 56.319538 80 84 56 2.000000 
-0.937370 1.394390 56.320690 74 78 54 2.000000 
-0.937660 1.393340 56.319489 99 107 74 2.000000 
-0.937760 1.393320 56.320610 91 98 69 2.000000 
-0.939980 1.392070 56.321522 121 133 98 2.000000 
-0.938260 1.393260 56.321732 94 100 69 2.000000 
-0.938810 1.393230 56.322861 110 114 84 2.000000 
-0.937270 1.394410 56.321838 88 89 66 2.000000 
-0.937250 1.394400 56.323029 104 110 87 2.000000 
-0.935750 1.395770 56.322010 67 75 50 2.000000 
-0.936160 1.395710 56.323139 85 94 64 2.000000 
-0.934960 1.395850 56.318619 62 64 43 2.000000 
-0.934510 1.395900 56.319839 58 68 50 2.000000 
-0.934760 1.395860 56.320961 57 66 47 2.000000 
-0.936730 1.395650 56.325409 59 67 48 2.000000 
-0.937710 1.395560 56.326469 56 64 42 2.000000 
-0.938630 1.395510 56.327518 61 70 45 2.000000 
-0.940020 1.392060 56.323872 109 107 82 2.000000 
-0.939270 1.393190 56.323940 102 109 83 2.000000 
-0.939050 1.393180 56.325130 95 107 75 2.000000 
-0.937260 1.394370 56.324181 95 104 79 2.000000 
-0.937450 1.394360 56.325298 77 93 61 2.000000 
-0.938870 1.393190 56.326321 101 117 80 2.000000 
-0.939680 1.393090 56.327412 126 135 105 2.000000 
-0.938970 1.394210 56.327480 89 100 75 2.000000 
-0.938140 1.394270 56.326389 78 88 63 2.000000 
-0.936260 1.395690 56.324291 70 80 57 2.000000 
-0.969210 1.387350 56.342091 79 94 43 2.000000 
-0.968960 1.388570 56.342129 95 106 51 2.000000 
-0.966410 1.388790 56.341202 109 116 78 2.000000 
-0.963270 1.390060 56.341461 132 135 106 2.000000 
-0.964810 1.389910 56.342529 129 131 97 2.000000 
-0.962660 1.391150 56.342731 148 149 117 2.000000 
-0.969110 1.389540 56.344490 148 147 109 2.000000 
-0.968460 1.388590 56.345699 125 128 85 2.000000 
-0.967450 1.389700 56.343460 135 140 91 2.000000 
-0.966370 1.388710 56.347038 100 101 71 2.000000 
-0.964720 1.390960 56.343731 151 154 118 2.000000 
-0.962330 1.392220 56.343960 132 137 99 2.000000 
-0.958810 1.397310 56.343170 81 88 61 2.000000 
-0.960230 1.391370 56.341759 146 148 117 2.000000 
-0.959320 1.392480 56.341869 138 140 98 2.000000 
-0.960700 1.392360 56.342930 139 141 106 2.000000 
-0.959190 1.393760 56.343071 118 122 89 2.000000 
-0.958580 1.395000 56.343151 105 117 81 2.000000 
-0.958500 1.396150 56.343159 90 101 65 2.000000 
-0.957650 1.392630 56.340839 143 146 114 2.000000 
-0.957720 1.393870 56.342049 118 120 84 2.000000 
-0.956100 1.392740 56.339821 137 142 111 2.000000 
-0.954670 1.394150 56.339989 126 131 102 2.000000 
-0.952600 1.396600 56.340210 105 116 80 2.000000 
-0.953030 1.394250 56.338959 128 130 105 2.000000 
-0.953100 1.395490 56.340130 114 121 90 2.000000 
-0.956670 1.396290 56.342159 115 122 93 2.000000 
-0.956510 1.395190 56.342152 117 121 93 2.000000 
-0.955720 1.397540 56.342270 105 111 78 2.000000 
-0.956010 1.394000 56.341019 130 131 98 2.000000 
-0.953950 1.396490 56.341270 110 122 88 2.000000 
-0.953370 1.397720 56.341309 100 112 79 2.000000 
-0.954360 1.395370 56.341190 118 128 97 2.000000 
-0.960720 1.395940 56.344158 69 81 52 2.000000 
-0.960930 1.394810 56.344109 80 93 54 2.000000 
-0.960820 1.393620 56.344101 103 111 73 2.000000 
-0.962860 1.383310 56.333172 130 133 102 2.000000 
-0.960870 1.384710 56.332230 143 145 110 2.000000 
-0.964980 1.384320 56.337719 111 119 94 2.000000 
-0.965920 1.383010 56.336418 114 122 87 2.000000 
-0.960040 1.385920 56.334679 110 105 68 2.000000 
-0.962760 1.384540 56.336761 87 93 60 2.000000 
-0.962820 1.385650 56.337921 86 102 66 2.000000 
-0.960140 1.385900 56.335838 89 89 55 2.000000 
-0.960670 1.385830 56.336960 72 77 42 2.000000 
-0.960650 1.386940 56.338161 83 94 54 2.000000 
-0.960160 1.388090 56.338200 107 112 77 2.000000 
-0.959300 1.387050 56.337101 90 99 65 2.000000 
-0.961950 1.383370 56.334461 108 113 80 2.000000 
-0.961010 1.384680 56.333382 136 135 102 2.000000 
-0.962760 1.383270 56.335548 123 129 103 2.000000 
-0.961210 1.384640 56.335732 88 87 50 2.000000 
-0.958980 1.386040 56.333591 119 115 81 2.000000 
-0.960510 1.384740 56.334599 103 102 65 2.000000 
-0.957440 1.386180 56.330219 123 130 97 2.000000 
-0.957970 1.386110 56.331341 127 129 101 2.000000 
-0.958000 1.386120 56.332531 119 116 89 2.000000 
-0.954440 1.387480 56.332859 126 125 102 2.000000 
-0.952590 1.387640 56.330711 132 135 109 2.000000 
-0.950910 1.387820 56.328529 122 123 87 2.000000 
-0.951080 1.387770 56.329689 120 126 97 2.000000 
-0.953420 1.387580 56.331799 126 127 103 2.000000 
-0.949460 1.389030 56.331051 130 137 107 2.000000 
-0.951590 1.388840 56.333160 130 132 105 2.000000 
-0.950600 1.388920 56.332111 143 146 122 2.000000 
-0.957850 1.387180 56.334881 122 127 97 2.000000 
-0.956100 1.387320 56.333889 122 124 91 2.000000 
-0.954910 1.388530 56.335178 132 138 107 2.000000 
-0.958470 1.387120 56.336010 116 122 93 2.000000 
-0.958010 1.388280 56.337238 127 133 108 2.000000 
-0.956390 1.388420 56.336208 130 139 112 2.000000 
-0.955050 1.389740 56.336349 128 130 99 2.000000 
-0.956680 1.389600 56.337379 124 129 101 2.000000 
-0.952970 1.388710 56.334190 132 139 108 2.000000 
-0.952720 1.389930 56.334229 133 138 106 2.000000 
-0.953780 1.389820 56.335331 132 136 106 2.000000 
-0.952820 1.390950 56.335430 143 149 119 2.000000 
-0.950810 1.392130 56.335640 139 144 118 2.000000 
-0.950930 1.390090 56.333241 134 135 110 2.000000 
-0.950540 1.391100 56.334469 146 150 119 2.000000 
-0.954160 1.390810 56.336460 138 140 112 2.000000 
-0.955070 1.390750 56.337551 134 139 107 2.000000 
-0.953630 1.391910 56.337688 144 150 117 2.000000 
-0.952440 1.392000 56.336632 139 145 105 2.000000 
-0.952400 1.393070 56.337830 145 149 118 2.000000 
-0.966250 1.384210 56.338779 128 134 101 2.000000 
-0.966920 1.384170 56.339870 100 111 69 2.000000 
-0.964860 1.387690 56.340130 97 106 61 2.000000 
-0.965070 1.386570 56.340080 105 115 79 2.000000 
-0.964660 1.385510 56.338909 111 120 91 2.000000 
-0.966360 1.385350 56.339939 102 110 71 2.000000 
-0.967080 1.386360 56.341080 83 96 52 2.000000 
-0.967960 1.386320 56.342171 76 93 46 2.000000 
-0.967220 1.385270 56.341042 75 88 48 2.000000 
-0.966970 1.384130 56.341061 67 85 40 2.000000 
-0.966640 1.385320 56.342289 66 84 35 2.000000 
-0.967010 1.387510 56.341129 103 115 80 2.000000 
-0.962520 1.387910 56.339161 90 95 51 2.000000 
-0.963900 1.388990 56.340240 106 113 74 2.000000 
-0.962630 1.386750 56.339119 89 97 59 2.000000 
-0.961540 1.389180 56.339272 115 117 83 2.000000 
-0.961000 1.390250 56.340500 134 138 107 2.000000 
-0.967590 1.387430 56.346939 108 115 75 2.000000 
-0.966240 1.386380 56.348209 84 89 45 2.000000 
-0.960090 1.390300 56.339409 132 134 107 2.000000 
-0.958830 1.389420 56.338341 118 123 86 2.000000 
-0.957450 1.390520 56.338509 133 141 110 2.000000 
-0.956460 1.391690 56.339771 148 152 121 2.000000 
-0.958430 1.391490 56.340771 149 152 119 2.000000 
-0.954980 1.391800 56.338749 144 153 121 2.000000 
-0.954710 1.392870 56.338791 142 145 118 2.000000 
-0.947070 1.397070 56.337219 128 132 98 2.000000 
-0.944710 1.397250 56.336262 87 96 61 2.000000 
-0.951460 1.397890 56.340309 86 99 60 2.000000 
-0.951490 1.396690 56.339149 116 122 87 2.000000 
-0.951020 1.395640 56.339169 120 117 90 2.000000 
-0.949380 1.398040 56.339352 112 115 86 2.000000 
-0.949180 1.396900 56.338181 142 148 114 2.000000 
-0.949190 1.395780 56.338169 147 150 120 2.000000 
-0.949460 1.390210 56.332211 140 141 116 2.000000 
-0.946590 1.391470 56.331360 139 150 122 2.000000 
-0.947650 1.391360 56.332420 145 150 124 2.000000 
-0.945980 1.392570 56.332588 138 150 125 2.000000 
-0.947000 1.389230 56.328930 128 132 104 2.000000 
-0.947740 1.389160 56.330021 123 128 103 2.000000 
-0.945640 1.390570 56.329109 132 139 112 2.000000 
-0.946490 1.390460 56.330158 135 138 119 2.000000 
-0.945400 1.391560 56.330299 143 145 122 2.000000 
-0.948640 1.390270 56.331120 131 137 115 2.000000 
-0.943520 1.392770 56.330509 127 131 99 2.000000 
-0.942690 1.392830 56.329418 122 128 100 2.000000 
-0.944420 1.392680 56.331558 136 143 112 2.000000 
-0.943970 1.393750 56.332790 122 129 101 2.000000 
-0.943620 1.395050 56.332840 91 97 73 2.000000 
-0.942120 1.396360 56.333012 84 97 69 2.000000 
-0.942710 1.395110 56.331779 91 100 73 2.000000 
-0.942390 1.393910 56.331810 111 117 87 2.000000 
-0.941480 1.393970 56.330711 100 108 78 2.000000 
-0.943700 1.391720 56.329311 140 146 120 2.000000 
-0.941620 1.391880 56.328350 137 144 115 2.000000 
-0.941190 1.392960 56.328388 125 136 107 2.000000 
-0.949080 1.391260 56.333450 150 152 123 2.000000 
-0.948510 1.392340 56.334671 154 159 128 2.000000 
-0.947380 1.393460 56.334820 145 152 120 2.000000 
-0.946600 1.394810 56.334888 113 123 88 2.000000 
-0.947610 1.392430 56.333580 152 157 129 2.000000 
-0.946050 1.393600 56.333752 136 145 112 2.000000 
-0.950780 1.393210 56.336800 135 140 107 2.000000 
-0.948700 1.393360 56.335838 130 135 94 2.000000 
-0.950600 1.394460 56.338001 143 144 118 2.000000 
-0.948020 1.394670 56.335911 129 135 101 2.000000 
-0.948520 1.394610 56.337040 138 144 115 2.000000 
-0.947680 1.395910 56.337151 141 147 115 2.000000 
-0.945100 1.394940 56.333858 95 103 77 2.000000 
-0.942950 1.396300 56.334099 84 98 65 2.000000 
-0.943850 1.396210 56.335159 99 113 79 2.000000 
-0.943210 1.397380 56.335270 89 100 71 2.000000 
-0.945410 1.396100 56.336182 110 120 82 2.000000 
-0.940030 1.394090 56.328541 86 95 71 2.000000 
-0.939400 1.395420 56.328609 66 75 53 2.000000 
-0.940230 1.395360 56.329700 69 85 55 2.000000 
-0.940660 1.394070 56.329620 87 96 69 2.000000 
-0.937830 1.396760 56.328789 64 69 51 2.000000 
-0.940910 1.396500 56.331951 79 93 70 2.000000 
-0.941170 1.395250 56.330761 84 99 65 2.000000 
-0.941860 1.397490 56.334209 72 80 52 2.000000 
-0.988900 1.442430 56.363731 41 42 19 2.000000 
-0.979020 1.418020 56.367668 141 150 108 2.000000 
-0.976100 1.419110 56.367931 158 166 125 2.000000 
-0.975930 1.417010 56.366718 110 117 69 2.000000 
-0.971830 1.419370 56.367050 154 159 121 2.000000 
-0.971790 1.418470 56.367039 137 144 104 2.000000 
-0.974960 1.414830 56.364422 121 131 82 2.000000 
-0.973150 1.416040 56.365742 101 99 54 2.000000 
-0.966430 1.419740 56.366299 147 153 116 2.000000 
-0.965100 1.421210 56.367592 174 181 140 2.000000 
-0.964160 1.417780 56.362930 94 104 58 2.000000 
-0.969200 1.416280 56.364861 118 126 81 2.000000 
-0.966590 1.417630 56.365089 114 115 75 2.000000 
-0.967360 1.416420 56.363831 97 111 68 2.000000 
-0.970000 1.417390 56.366001 112 116 72 2.000000 
-0.966960 1.418790 56.366261 131 137 97 2.000000 
-0.964310 1.418960 56.365292 135 138 108 2.000000 
-0.964580 1.417750 56.364052 102 109 64 2.000000 
-0.962560 1.419110 56.364262 137 141 108 2.000000 
-0.963370 1.419920 56.365360 156 161 128 2.000000 
-0.959840 1.422760 56.368000 173 176 146 2.000000 
-0.953900 1.425260 56.367340 142 151 120 2.000000 
-0.955940 1.420410 56.362450 144 150 108 2.000000 
-0.952600 1.422030 56.361561 96 104 60 2.000000 
-0.959720 1.420180 56.364479 153 159 127 2.000000 
-0.960800 1.419220 56.363232 135 143 99 2.000000 
-0.956930 1.420330 56.363548 150 155 121 2.000000 
-0.960910 1.421480 56.366749 168 176 138 2.000000 
-0.957120 1.421700 56.365871 156 163 131 2.000000 
-0.957550 1.422920 56.367001 152 159 129 2.000000 
-0.952290 1.423260 56.365101 134 141 114 2.000000 
-0.951910 1.422070 56.363930 135 138 111 2.000000 
-0.954110 1.421900 56.364929 137 144 114 2.000000 
-0.954860 1.423070 56.366070 142 151 121 2.000000 
-0.953420 1.424240 56.366169 131 140 111 2.000000 
-0.955100 1.424120 56.367241 149 154 121 2.000000 
-0.949210 1.426820 56.365379 122 128 95 2.000000 
-0.952500 1.425350 56.366268 126 136 111 2.000000 
-0.951410 1.427720 56.367538 136 142 119 2.000000 
-0.951960 1.426630 56.367512 138 146 121 2.000000 
-0.950320 1.428910 56.367649 140 147 121 2.000000 
-0.950250 1.426760 56.366482 137 143 114 2.000000 
-0.949800 1.427810 56.366508 138 144 115 2.000000 
-0.946570 1.428030 56.364460 109 117 82 2.000000 
-0.944900 1.429250 56.364590 122 130 101 2.000000 
-0.948250 1.427920 56.365490 131 136 111 2.000000 
-0.947820 1.429060 56.366680 136 144 120 2.000000 
-0.946270 1.429170 56.365650 134 142 118 2.000000 
-0.950280 1.423380 56.361759 92 104 60 2.000000 
-0.950960 1.422140 56.362869 122 125 93 2.000000 
-0.945900 1.425780 56.362160 94 97 72 2.000000 
-0.946620 1.424700 56.362091 107 114 90 2.000000 
-0.945150 1.427110 56.362228 81 81 63 2.000000 
-0.944710 1.428160 56.362270 78 89 67 2.000000 
-0.951410 1.424360 56.365170 133 140 114 2.000000 
-0.951190 1.425450 56.365211 116 127 89 2.000000 
-0.950160 1.423390 56.364101 131 135 109 2.000000 
-0.949210 1.424520 56.364170 131 136 111 2.000000 
-0.949060 1.425580 56.364208 113 118 90 2.000000 
-0.949290 1.423430 56.363010 118 127 98 2.000000 
-0.946770 1.425730 56.363251 91 106 71 2.000000 
-0.945860 1.427060 56.363319 84 97 67 2.000000 
-0.947450 1.426930 56.364349 93 108 66 2.000000 
-0.947240 1.424630 56.363171 121 132 104 2.000000 
-0.945080 1.428110 56.363392 77 93 58 2.000000 
-0.978160 1.418950 56.370121 132 135 85 2.000000 
-0.980130 1.417920 56.371151 112 123 67 2.000000 
-0.977490 1.418990 56.371342 122 129 82 2.000000 
-0.978530 1.418010 56.372429 105 116 63 2.000000 
-0.976940 1.418990 56.372559 102 113 57 2.000000 
-0.975190 1.420520 56.372688 89 100 43 2.000000 
-0.974170 1.420620 56.371601 130 137 87 2.000000 
-0.976430 1.420460 56.373791 71 81 32 2.000000 
-0.975870 1.419070 56.373810 79 92 40 2.000000 
-0.975760 1.419050 56.375000 72 88 38 2.000000 
-0.976160 1.419040 56.376160 77 94 43 2.000000 
-0.971020 1.420800 56.370659 154 157 123 2.000000 
-0.967720 1.421050 56.368561 176 178 144 2.000000 
-0.962500 1.422560 56.370129 155 160 125 2.000000 
-0.961400 1.422650 56.369068 172 176 137 2.000000 
-0.958390 1.423890 56.370449 131 138 94 2.000000 
-0.956930 1.423980 56.368229 161 165 130 2.000000 
-0.957600 1.423940 56.369362 160 166 127 2.000000 
-0.956040 1.425110 56.369492 140 143 112 2.000000 
-0.954160 1.427520 56.369671 110 119 82 2.000000 
-0.955250 1.425160 56.368401 140 148 118 2.000000 
-0.953850 1.426510 56.368500 121 130 94 2.000000 
-0.954520 1.426470 56.369629 125 130 93 2.000000 
-0.957250 1.426260 56.372898 71 82 47 2.000000 
-0.957980 1.424950 56.371681 104 113 70 2.000000 
-0.956590 1.425070 56.370609 124 127 89 2.000000 
-0.955430 1.426410 56.370720 100 104 71 2.000000 
-0.955930 1.426360 56.371841 73 82 46 2.000000 
-0.952880 1.427600 56.368610 120 127 97 2.000000 
-0.965310 1.387580 56.348320 65 71 33 2.000000 
-0.964730 1.387630 56.349541 47 53 22 2.000000 
-0.964480 1.386490 56.349522 58 65 30 2.000000 
-0.964500 1.385410 56.349510 77 84 44 2.000000 
-0.964250 1.386480 56.350712 48 59 19 2.000000 
-0.966210 1.382830 56.350479 73 88 43 2.000000 
-0.963620 1.383030 56.351898 67 84 28 2.000000 
-0.962890 1.385520 56.351978 63 86 14 2.000000 
-0.962400 1.383130 56.353142 70 90 31 2.000000 
-0.962000 1.384410 56.353222 76 99 23 2.000000 
-0.942970 1.429400 56.362438 85 103 71 2.000000 
-0.942000 1.430580 56.362511 106 118 100 2.000000 
-0.943550 1.429350 56.363529 94 111 70 2.000000 
-0.942010 1.430560 56.363659 113 123 91 2.000000 
-0.943770 1.430450 56.364689 132 141 117 2.000000 
-0.996760 1.428360 56.392651 93 111 25 2.000000 
-0.993920 1.428580 56.389252 98 117 24 2.000000 
-0.994870 1.428510 56.390388 90 111 22 2.000000 
-0.992300 1.427390 56.390518 100 118 27 2.000000 
-0.995370 1.428450 56.391548 92 110 16 2.000000 
-0.980840 1.386370 56.237358 14 43 17 2.000000 
-0.980590 1.386140 56.238441 15 44 21 2.000000 
-0.979680 1.386910 56.238430 15 35 20 2.000000 
-0.979020 1.386330 56.239399 15 38 23 2.000000 
-0.980210 1.385840 56.239521 11 43 15 2.000000 
-0.978180 1.385640 56.241520 19 44 19 2.000000 
-0.981140 1.385280 56.241871 16 47 20 2.000000 
-0.978400 1.385790 56.240410 18 38 17 2.000000 
-0.980330 1.385970 56.240711 15 44 15 2.000000 
-0.980360 1.386020 56.241821 18 47 21 2.000000 
-0.978210 1.385640 56.242680 16 45 19 2.000000 
-0.980330 1.386010 56.242970 20 50 24 2.000000 
-0.978760 1.386200 56.243931 17 45 19 2.000000 
-0.979110 1.387730 56.237259 18 42 23 2.000000 
-0.978780 1.387480 56.238338 21 40 25 2.000000 
-0.978400 1.387130 56.239422 14 38 27 2.000000 
-0.978620 1.387360 56.240608 16 39 23 2.000000 
-1.002040 1.394620 56.233021 19 59 30 2.000000 
-1.003560 1.394770 56.233250 21 66 23 2.000000 
-1.003340 1.394630 56.234322 21 60 27 2.000000 
-1.002560 1.395150 56.234280 23 60 30 2.000000 
-1.005000 1.394540 56.234520 27 62 25 2.000000 
-1.004950 1.394510 56.235668 24 59 21 2.000000 
-1.006850 1.394560 56.235889 26 65 25 2.000000 
-1.006930 1.394660 56.237049 18 63 24 2.000000 
-1.005490 1.395020 56.236931 21 58 16 2.000000 
-1.003730 1.394980 56.235550 22 58 23 2.000000 
-1.003080 1.395630 56.235538 23 57 27 2.000000 
-1.004380 1.395590 56.236839 23 60 22 2.000000 
-1.003030 1.395600 56.236649 22 57 24 2.000000 
-1.005930 1.395470 56.238152 19 63 24 2.000000 
-1.004610 1.395830 56.238029 26 68 25 2.000000 
-1.007960 1.394380 56.237160 20 63 25 2.000000 
-1.008180 1.394620 56.238350 20 61 22 2.000000 
-1.008680 1.395080 56.239609 21 62 24 2.000000 
-1.007540 1.395220 56.238338 19 62 24 2.000000 
-1.006480 1.395980 56.239399 21 67 26 2.000000 
-1.008250 1.395890 56.239632 22 63 25 2.000000 
-1.006680 1.396140 56.240551 26 68 28 2.000000 
-0.985340 1.405070 56.217079 20 41 13 2.000000 
-0.984740 1.404610 56.218079 22 46 19 2.000000 
-0.984090 1.404030 56.219059 23 48 23 2.000000 
-0.985880 1.403920 56.219292 21 47 20 2.000000 
-0.987130 1.405030 56.218460 22 42 15 2.000000 
-0.983510 1.403540 56.220058 26 50 27 2.000000 
-0.983080 1.403180 56.221111 27 46 27 2.000000 
-0.982730 1.402840 56.222149 22 39 23 2.000000 
-0.981990 1.402260 56.224281 17 37 19 2.000000 
-0.984510 1.401550 56.223400 22 47 22 2.000000 
-0.985170 1.402080 56.222431 26 50 24 2.000000 
-0.984160 1.401220 56.224480 21 46 20 2.000000 
-0.986360 1.401570 56.224819 26 53 22 2.000000 
-0.983760 1.402100 56.223358 19 40 22 2.000000 
-0.982210 1.402400 56.223202 19 37 21 2.000000 
-0.984380 1.402650 56.222382 26 47 26 2.000000 
-0.983270 1.401690 56.224400 17 40 20 2.000000 
-0.986390 1.403150 56.220409 24 48 19 2.000000 
-0.985710 1.402540 56.221378 25 47 20 2.000000 
-0.985390 1.403500 56.220329 24 49 24 2.000000 
-0.985010 1.403200 56.221371 26 50 26 2.000000 
-0.987530 1.402580 56.222801 30 55 30 2.000000 
-0.986880 1.402010 56.223808 26 54 27 2.000000 
-0.982980 1.404460 56.220089 24 44 24 2.000000 
-0.982410 1.403970 56.221100 23 41 24 2.000000 
-0.982030 1.403660 56.222141 21 38 23 2.000000 
-0.981840 1.403490 56.223259 20 40 20 2.000000 
-0.981730 1.403410 56.224369 19 39 19 2.000000 
-0.984300 1.390900 56.229130 25 44 33 2.000000 
-0.984780 1.388400 56.232361 16 40 21 2.000000 
-0.983650 1.390320 56.230141 23 43 28 2.000000 
-0.983130 1.389880 56.231140 19 41 26 2.000000 
-0.983310 1.388460 56.232170 15 37 20 2.000000 
-0.982340 1.389170 56.232121 17 39 27 2.000000 
-0.984180 1.389250 56.231232 22 42 28 2.000000 
-0.983230 1.387010 56.234310 12 40 17 2.000000 
-0.982610 1.387890 56.233181 14 37 19 2.000000 
-0.981760 1.387120 56.234119 15 40 20 2.000000 
-0.981310 1.388290 56.234169 16 38 23 2.000000 
-0.983800 1.387500 56.233299 20 45 23 2.000000 
-0.981930 1.388840 56.233158 20 43 28 2.000000 
-0.984370 1.393850 56.227150 23 48 40 2.000000 
-0.983870 1.391860 56.228031 28 46 30 2.000000 
-0.983960 1.393470 56.228199 20 53 31 2.000000 
-0.983520 1.391530 56.229080 18 43 26 2.000000 
-0.985110 1.394520 56.229599 24 54 32 2.000000 
-0.983300 1.391390 56.230190 18 42 24 2.000000 
-0.983160 1.391270 56.231312 18 45 25 2.000000 
-0.983060 1.391180 56.232430 21 47 31 2.000000 
-0.983110 1.391260 56.233582 18 45 32 2.000000 
-0.983200 1.391360 56.234730 22 46 27 2.000000 
-0.988010 1.398690 56.227020 29 57 26 2.000000 
-0.988670 1.399310 56.228310 27 63 35 2.000000 
-0.987020 1.400670 56.229370 30 63 28 2.000000 
-0.982000 1.402280 56.225430 15 38 20 2.000000 
-0.981750 1.402060 56.226509 17 40 20 2.000000 
-0.984160 1.401240 56.225639 21 47 22 2.000000 
-0.985850 1.401130 56.225830 27 58 26 2.000000 
-0.985360 1.400710 56.226871 26 58 25 2.000000 
-0.984140 1.401230 56.226749 16 44 19 2.000000 
-0.983160 1.401600 56.225521 16 40 18 2.000000 
-0.983300 1.401760 56.226700 16 41 18 2.000000 
-0.983650 1.400840 56.228951 25 48 26 2.000000 
-0.982970 1.401500 56.227749 18 45 20 2.000000 
-0.981700 1.402030 56.227661 16 40 18 2.000000 
-0.982920 1.401470 56.228901 17 45 19 2.000000 
-0.981920 1.402260 56.228851 15 41 15 2.000000 
-0.985220 1.400600 56.227989 26 58 25 2.000000 
-0.983810 1.400980 56.227829 17 47 19 2.000000 
-0.984980 1.400430 56.229069 25 53 26 2.000000 
-0.988730 1.402130 56.225189 25 55 25 2.000000 
-0.988050 1.401530 56.226158 35 65 33 2.000000 
-0.990200 1.402090 56.226528 33 60 29 2.000000 
-0.988130 1.401630 56.227348 28 63 24 2.000000 
-0.987450 1.401030 56.228321 32 66 30 2.000000 
-0.989220 1.401250 56.227428 28 62 23 2.000000 
-0.989360 1.401350 56.228619 29 67 32 2.000000 
-0.989060 1.401120 56.229660 32 71 33 2.000000 
-0.987620 1.396810 56.231319 23 53 27 2.000000 
-0.987020 1.400690 56.230518 32 66 29 2.000000 
-0.986940 1.400630 56.231640 32 69 26 2.000000 
-0.988830 1.397920 56.232719 24 57 27 2.000000 
-0.987160 1.400860 56.232819 33 70 24 2.000000 
-0.987050 1.400780 56.233940 33 72 25 2.000000 
-0.983430 1.400700 56.230030 21 43 24 2.000000 
-0.983460 1.400750 56.231178 17 46 22 2.000000 
-0.982920 1.401490 56.230049 15 41 22 2.000000 
-0.981920 1.402280 56.230000 12 36 14 2.000000 
-0.982840 1.401430 56.231171 13 41 21 2.000000 
-0.981680 1.402110 56.231079 18 41 19 2.000000 
-0.984900 1.400370 56.230179 26 53 25 2.000000 
-0.985390 1.400820 56.231441 22 52 18 2.000000 
-0.983600 1.400850 56.232330 15 44 18 2.000000 
-0.983690 1.400970 56.234631 13 42 20 2.000000 
-0.982870 1.401480 56.232319 14 42 18 2.000000 
-0.981680 1.402140 56.232231 13 41 18 2.000000 
-0.981770 1.402180 56.233379 16 45 20 2.000000 
-0.981490 1.401990 56.234459 18 46 21 2.000000 
-0.985560 1.401010 56.232632 23 55 18 2.000000 
-0.985340 1.400810 56.233711 23 54 19 2.000000 
-0.983820 1.401090 56.233521 12 42 15 2.000000 
-0.983500 1.402070 56.233582 13 42 18 2.000000 
-0.990250 1.400740 56.229820 27 67 32 2.000000 
-0.988950 1.401040 56.230820 33 72 31 2.000000 
-0.991050 1.401490 56.231110 31 73 32 2.000000 
-0.990250 1.399190 56.234192 30 64 36 2.000000 
-0.991570 1.401970 56.232368 38 77 37 2.000000 
-0.992200 1.402560 56.233669 35 77 32 2.000000 
-0.990160 1.402140 56.232220 38 78 33 2.000000 
-0.990650 1.402590 56.233479 38 81 29 2.000000 
-0.990380 1.402400 56.234558 30 80 24 2.000000 
-0.985620 1.386170 56.236809 20 63 25 2.000000 
-0.985480 1.386050 56.237930 19 62 23 2.000000 
-0.985100 1.385750 56.239010 24 60 24 2.000000 
-0.987200 1.386040 56.239311 16 51 15 2.000000 
-0.984040 1.386260 56.235470 22 54 26 2.000000 
-0.982660 1.386510 56.235321 12 43 16 2.000000 
-0.982220 1.386150 56.236359 14 52 18 2.000000 
-0.984100 1.386340 56.236622 21 58 23 2.000000 
-0.981330 1.386760 56.235161 17 40 20 2.000000 
-0.980760 1.387820 56.235222 19 39 28 2.000000 
-0.981140 1.386590 56.236279 15 40 16 2.000000 
-0.980570 1.387650 56.236301 19 37 23 2.000000 
-0.980160 1.387320 56.237381 16 35 17 2.000000 
-0.982200 1.386150 56.237511 12 54 21 2.000000 
-0.984070 1.386330 56.237770 22 59 22 2.000000 
-0.982140 1.386110 56.238670 21 57 21 2.000000 
-0.982120 1.386110 56.239780 22 58 21 2.000000 
-0.983830 1.386110 56.238850 28 65 28 2.000000 
-0.984830 1.385500 56.240051 21 57 20 2.000000 
-0.984590 1.385270 56.241169 18 54 17 2.000000 
-0.984700 1.385400 56.242321 18 54 17 2.000000 
-0.986300 1.385270 56.240250 18 53 17 2.000000 
-0.987980 1.385430 56.240471 24 59 24 2.000000 
-0.986630 1.385570 56.241470 21 57 21 2.000000 
-0.983260 1.385610 56.239899 28 65 28 2.000000 
-0.982980 1.385420 56.240978 23 60 23 2.000000 
-0.981790 1.385860 56.240860 24 60 24 2.000000 
-0.982690 1.385140 56.242062 18 53 17 2.000000 
-0.981740 1.385840 56.243130 18 50 22 2.000000 
-0.980120 1.388610 56.236359 20 46 29 2.000000 
-0.981590 1.389940 56.235519 24 50 39 2.000000 
-0.981850 1.391770 56.239182 30 68 44 2.000000 
-0.983980 1.393630 56.237339 22 60 36 2.000000 
-0.983320 1.393110 56.238350 29 65 39 2.000000 
-0.980130 1.390250 56.239941 16 51 35 2.000000 
-0.979770 1.388410 56.242008 19 39 17 2.000000 
-0.980270 1.388870 56.243271 17 45 19 2.000000 
-0.980870 1.389430 56.244518 20 51 24 2.000000 
-0.987220 1.396560 56.236931 32 69 29 2.000000 
-0.986810 1.400610 56.235020 29 71 24 2.000000 
-0.981580 1.402090 56.235611 21 42 18 2.000000 
-0.981910 1.402380 56.236839 24 47 22 2.000000 
-0.985100 1.400640 56.234791 22 52 24 2.000000 
-0.983910 1.401210 56.235821 17 45 27 2.000000 
-0.985290 1.400800 56.235981 22 51 21 2.000000 
-0.984460 1.401720 56.237080 16 51 21 2.000000 
-0.983370 1.401950 56.234692 12 41 18 2.000000 
-0.983150 1.401810 56.235809 18 43 20 2.000000 
-0.983560 1.402180 56.237030 18 49 23 2.000000 
-0.982070 1.402560 56.237991 21 50 24 2.000000 
-0.985920 1.401390 56.237228 21 48 18 2.000000 
-0.985440 1.402610 56.238441 28 56 26 2.000000 
-0.983810 1.402390 56.238220 17 55 25 2.000000 
-0.982600 1.403040 56.239239 17 51 23 2.000000 
-0.987250 1.401010 56.236240 31 69 27 2.000000 
-0.992190 1.400970 56.235771 35 69 37 2.000000 
-0.991810 1.400660 56.236809 34 69 32 2.000000 
-0.991040 1.403010 56.235809 35 80 32 2.000000 
-0.991280 1.403220 56.237000 37 78 33 2.000000 
-0.988230 1.401900 56.237598 33 71 30 2.000000 
-0.991150 1.403110 56.238110 37 80 33 2.000000 
-0.991810 1.402390 56.243809 30 73 46 2.000000 
-0.981290 1.403050 56.225422 21 41 24 2.000000 
-0.980890 1.402720 56.226460 19 40 21 2.000000 
-0.980510 1.402410 56.227509 13 35 16 2.000000 
-0.980510 1.402430 56.228661 15 43 17 2.000000 
-0.979860 1.403300 56.228680 16 44 35 2.000000 
-0.980480 1.402420 56.229809 14 39 17 2.000000 
-0.979860 1.403330 56.229832 21 45 43 2.000000 
-0.980680 1.402580 56.230999 17 41 20 2.000000 
-0.980540 1.402520 56.232109 23 47 25 2.000000 
-0.979650 1.403170 56.233181 27 49 28 2.000000 
-0.980840 1.402780 56.233299 18 45 21 2.000000 
-0.981070 1.403020 56.234482 16 49 21 2.000000 
-0.979820 1.403350 56.234371 22 50 24 2.000000 
-0.981100 1.403070 56.235641 21 48 22 2.000000 
-0.980120 1.403620 56.235592 18 53 24 2.000000 
-0.981100 1.403090 56.236790 25 47 23 2.000000 
-0.980420 1.403940 56.236771 20 50 23 2.000000 
-0.980450 1.403980 56.237930 20 45 20 2.000000 
-0.979530 1.404480 56.237881 18 47 21 2.000000 
-0.980590 1.404090 56.239109 21 46 17 2.000000 
-0.979640 1.404610 56.239029 27 48 27 2.000000 
-0.978560 1.404990 56.238911 30 48 37 2.000000 
-0.981540 1.403490 56.238049 24 45 21 2.000000 
-0.981620 1.403590 56.239201 19 46 19 2.000000 
-0.978730 1.405170 56.240101 29 53 33 2.000000 
-0.978590 1.405060 56.241211 27 58 28 2.000000 
-0.982170 1.404100 56.240459 17 47 16 2.000000 
-0.980920 1.404430 56.240299 24 52 18 2.000000 
-0.980000 1.404920 56.240250 31 58 28 2.000000 
-0.980030 1.404970 56.241402 28 60 24 2.000000 
-0.981720 1.405130 56.241631 23 55 22 2.000000 
-0.979920 1.404880 56.242519 25 62 26 2.000000 
-0.978540 1.405020 56.242329 26 62 23 2.000000 
-0.978950 1.405400 56.243549 34 68 28 2.000000 
-0.980580 1.405500 56.243778 25 64 30 2.000000 
-0.983970 1.405690 56.241959 15 47 18 2.000000 
-0.992910 1.403230 56.234959 35 76 32 2.000000 
-0.993020 1.403360 56.236111 40 82 35 2.000000 
-0.992800 1.403170 56.237190 42 82 38 2.000000 
-0.992560 1.402940 56.238270 37 81 33 2.000000 
-0.992920 1.403310 56.239491 40 90 35 2.000000 
-0.993280 1.405080 56.239731 34 79 28 2.000000 
-0.994310 1.404550 56.240921 39 90 41 2.000000 
-0.993530 1.403920 56.243050 36 84 52 2.000000 
-0.995000 1.405200 56.242222 37 88 50 2.000000 
-1.002000 1.412900 56.243912 31 71 32 2.000000 
-1.020060 1.517430 56.236050 32 48 36 2.000000 
-1.019570 1.518470 56.236069 23 51 38 2.000000 
-1.017620 1.519720 56.235931 26 59 40 2.000000 
-1.019770 1.519960 56.236229 27 56 42 2.000000 
-1.018120 1.521570 56.236172 30 56 39 2.000000 
-1.021640 1.518750 56.237480 36 65 52 2.000000 
-1.021700 1.518820 56.238560 28 57 44 2.000000 
-1.021050 1.519680 56.237469 34 65 50 2.000000 
-1.021220 1.519860 56.238609 31 61 46 2.000000 
-1.021190 1.519850 56.239651 27 55 42 2.000000 
-1.019970 1.521700 56.237549 23 50 38 2.000000 
-1.021110 1.519790 56.240730 24 51 38 2.000000 
-1.020680 1.519430 56.241699 15 35 29 2.000000 
-1.020460 1.520630 56.241791 18 36 26 2.000000 
-1.020010 1.521780 56.240768 23 47 36 2.000000 
-1.019980 1.521770 56.241852 16 34 25 2.000000 
-1.020870 1.520900 56.237598 31 61 46 2.000000 
-1.021170 1.521170 56.238739 29 59 45 2.000000 
-1.021310 1.521320 56.239819 27 54 42 2.000000 
-1.019660 1.522840 56.237598 30 55 38 2.000000 
-1.020410 1.522090 56.238731 34 62 50 2.000000 
-1.020140 1.521900 56.239731 27 56 43 2.000000 
-1.019630 1.522830 56.238682 50 78 64 2.000000 
-1.019800 1.523010 56.239792 39 69 56 2.000000 
-1.020930 1.521020 56.240822 29 54 42 2.000000 
-1.019830 1.523060 56.240860 25 50 39 2.000000 
-1.019830 1.523080 56.241940 15 35 26 2.000000 
-1.011710 1.515780 56.206470 37 80 53 2.000000 
-1.011290 1.518050 56.205589 29 41 30 2.000000 
-1.012780 1.517960 56.205780 26 53 33 2.000000 
-1.013110 1.518250 56.206970 36 76 51 2.000000 
-1.013450 1.519890 56.207199 35 67 45 2.000000 
-1.013900 1.518900 56.208260 41 89 60 2.000000 
-1.014180 1.519130 56.209412 40 90 60 2.000000 
-1.014020 1.519040 56.210449 52 90 64 2.000000 
-1.011670 1.522410 56.208279 24 31 34 2.000000 
-0.978980 1.519310 56.241241 19 41 27 2.000000 
-1.013400 1.521190 56.207329 29 38 31 2.000000 
-1.014050 1.520390 56.208420 49 92 65 2.000000 
-1.014620 1.520870 56.209679 57 99 77 2.000000 
-1.014690 1.522270 56.208729 36 62 44 2.000000 
-1.014260 1.523140 56.208759 20 39 30 2.000000 
-1.015100 1.522640 56.209961 49 85 75 2.000000 
-1.015510 1.524190 56.210159 29 53 43 2.000000 
-1.014680 1.524870 56.210110 19 36 29 2.000000 
-1.015150 1.521300 56.210861 49 86 69 2.000000 
-1.015670 1.521780 56.212078 49 85 76 2.000000 
-1.015020 1.522580 56.210991 54 90 83 2.000000 
-1.015710 1.524350 56.211311 45 80 75 2.000000 
-1.015220 1.525380 56.211330 24 36 22 2.000000 
-1.015180 1.522760 56.212139 49 83 77 2.000000 
-1.015650 1.524310 56.212379 50 85 74 2.000000 
-1.013780 1.525290 56.210030 27 44 44 2.000000 
-1.015800 1.525860 56.212551 34 62 42 2.000000 
-1.015070 1.526360 56.211430 21 40 32 2.000000 
-1.015450 1.526710 56.212608 32 42 29 2.000000 
-1.014910 1.527420 56.212601 18 41 31 2.000000 
-1.015480 1.521630 56.214199 39 73 64 2.000000 
-1.014960 1.521240 56.215172 56 95 83 2.000000 
-1.016130 1.522150 56.213310 37 71 66 2.000000 
-1.015620 1.523110 56.213329 47 82 71 2.000000 
-1.015660 1.524330 56.213459 48 85 63 2.000000 
-1.016200 1.523590 56.214550 41 76 59 2.000000 
-1.016100 1.524730 56.214642 52 85 69 2.000000 
-1.015480 1.521670 56.216389 46 89 86 2.000000 
-1.016110 1.522200 56.217609 48 90 80 2.000000 
-1.016470 1.523880 56.215691 43 81 65 2.000000 
-1.016640 1.524010 56.216808 61 100 83 2.000000 
-1.016130 1.526150 56.213730 44 82 56 2.000000 
-1.015690 1.525790 56.214699 53 88 71 2.000000 
-1.016480 1.525070 56.215832 38 74 59 2.000000 
-1.015860 1.525970 56.215809 45 84 65 2.000000 
-1.016670 1.525230 56.216942 43 86 68 2.000000 
-1.016490 1.526510 56.217072 41 89 68 2.000000 
-1.015560 1.526840 56.213718 28 55 35 2.000000 
-1.015320 1.527730 56.213779 15 33 14 2.000000 
-1.015760 1.526990 56.214828 33 62 48 2.000000 
-1.015710 1.528080 56.214970 18 34 19 2.000000 
-1.015120 1.528900 56.214951 16 31 25 2.000000 
-1.016000 1.527200 56.215981 45 73 59 2.000000 
-1.016090 1.528420 56.216110 38 50 43 2.000000 
-1.016090 1.527300 56.217091 48 90 71 2.000000 
-1.016090 1.528440 56.217232 40 57 49 2.000000 
-1.014640 1.529920 56.217129 29 27 31 2.000000 
-1.016240 1.529870 56.216320 13 23 16 2.000000 
-1.016760 1.530290 56.217499 22 20 17 2.000000 
-1.016120 1.522220 56.218719 41 78 62 2.000000 
-1.016530 1.522590 56.219872 34 65 51 2.000000 
-1.016940 1.524270 56.217949 54 95 85 2.000000 
-1.016750 1.524150 56.218990 53 93 76 2.000000 
-1.017180 1.523160 56.221119 26 57 41 2.000000 
-1.016850 1.521540 56.222000 34 67 46 2.000000 
-1.017570 1.523500 56.222309 31 65 46 2.000000 
-1.016780 1.525360 56.218048 58 100 83 2.000000 
-1.016660 1.526640 56.218182 48 98 78 2.000000 
-1.016510 1.525160 56.219090 58 97 81 2.000000 
-1.016300 1.526360 56.219181 57 100 85 2.000000 
-1.017300 1.524620 56.221291 40 76 53 2.000000 
-1.017410 1.524750 56.222401 39 72 60 2.000000 
-1.017110 1.524470 56.220181 43 78 61 2.000000 
-1.016650 1.525260 56.220200 47 84 61 2.000000 
-1.016390 1.526460 56.220299 61 100 82 2.000000 
-1.016980 1.525550 56.221352 44 84 65 2.000000 
-1.016870 1.525520 56.222389 45 85 74 2.000000 
-1.016500 1.526590 56.221409 40 83 69 2.000000 
-1.016750 1.526800 56.222519 46 94 81 2.000000 
-1.016120 1.527350 56.218170 44 99 78 2.000000 
-1.016390 1.527580 56.219318 58 99 94 2.000000 
-1.016340 1.528650 56.218342 38 72 63 2.000000 
-1.016300 1.529960 56.218472 21 35 29 2.000000 
-1.016400 1.528730 56.219452 46 87 85 2.000000 
-1.016130 1.529820 56.219509 28 49 46 2.000000 
-1.015270 1.530450 56.218380 21 27 23 2.000000 
-1.015790 1.530880 56.219559 15 24 20 2.000000 
-1.016500 1.527710 56.220428 55 106 91 2.000000 
-1.016560 1.527780 56.221539 42 108 85 2.000000 
-1.016180 1.528600 56.221561 47 104 81 2.000000 
-1.016350 1.528690 56.220531 50 102 88 2.000000 
-1.016490 1.530130 56.220692 33 64 52 2.000000 
-1.016680 1.530290 56.221802 42 71 50 2.000000 
-1.015930 1.531030 56.220711 17 31 24 2.000000 
-1.015930 1.531050 56.221790 20 30 17 2.000000 
-1.015170 1.531710 56.221741 17 36 26 2.000000 
-1.017530 1.522130 56.223209 35 70 51 2.000000 
-1.017430 1.523380 56.223351 39 68 60 2.000000 
-1.017130 1.521850 56.224220 51 92 78 2.000000 
-1.017110 1.523130 56.224350 46 79 69 2.000000 
-1.017160 1.523210 56.225422 54 103 89 2.000000 
-1.017060 1.523170 56.226501 59 108 98 2.000000 
-1.017410 1.524770 56.223469 34 61 57 2.000000 
-1.017180 1.525780 56.223572 37 71 62 2.000000 
-1.016990 1.527010 56.223671 46 93 73 2.000000 
-1.017140 1.524580 56.224522 35 57 48 2.000000 
-1.017230 1.525850 56.224651 35 62 46 2.000000 
-1.017000 1.527020 56.224739 39 80 57 2.000000 
-1.017090 1.524540 56.225552 55 73 57 2.000000 
-1.017430 1.526010 56.225761 39 66 59 2.000000 
-1.016830 1.526940 56.225780 43 74 68 2.000000 
-1.017070 1.524530 56.226631 52 100 83 2.000000 
-1.017700 1.526240 56.226898 41 70 66 2.000000 
-1.016970 1.527040 56.226891 42 75 59 2.000000 
-1.016700 1.527880 56.222610 43 99 79 2.000000 
-1.016270 1.528650 56.222641 44 91 74 2.000000 
-1.016700 1.527900 56.223728 49 104 77 2.000000 
-1.016190 1.528640 56.223709 54 98 79 2.000000 
-1.016480 1.527760 56.224731 51 83 76 2.000000 
-1.016220 1.528690 56.224789 59 93 78 2.000000 
-1.016790 1.530420 56.222912 50 73 56 2.000000 
-1.017070 1.530650 56.224060 37 77 52 2.000000 
-1.016040 1.531180 56.222900 26 46 28 2.000000 
-1.015550 1.532050 56.222889 10 31 14 2.000000 
-1.015850 1.531010 56.223900 29 54 36 2.000000 
-1.015690 1.532150 56.223999 22 39 25 2.000000 
-1.016540 1.527830 56.225842 51 86 70 2.000000 
-1.016570 1.527880 56.226921 48 86 65 2.000000 
-1.016490 1.528920 56.225941 47 83 60 2.000000 
-1.016470 1.530200 56.226070 50 90 61 2.000000 
-1.016640 1.530350 56.225029 42 84 60 2.000000 
-1.016550 1.529000 56.227051 41 82 58 2.000000 
-1.016720 1.530410 56.227219 41 81 59 2.000000 
-1.015630 1.530870 56.224941 33 62 43 2.000000 
-1.015830 1.531020 56.226051 29 62 44 2.000000 
-1.015560 1.532090 56.225079 33 50 38 2.000000 
-1.015480 1.532030 56.226109 25 44 33 2.000000 
-1.016160 1.531310 56.227200 35 72 56 2.000000 
-1.015750 1.532270 56.227261 21 44 31 2.000000 
-1.016510 1.521440 56.229488 38 72 59 2.000000 
-1.016870 1.523000 56.227539 57 103 88 2.000000 
-1.016930 1.523070 56.228619 53 96 81 2.000000 
-1.017250 1.523370 56.229801 51 88 74 2.000000 
-1.017010 1.524500 56.227711 58 105 90 2.000000 
-1.017560 1.523630 56.230949 43 76 64 2.000000 
-1.017070 1.523270 56.231880 43 76 65 2.000000 
-1.017260 1.524710 56.228851 55 98 83 2.000000 
-1.017380 1.525990 56.227909 51 94 77 2.000000 
-1.017140 1.527220 56.228001 43 81 64 2.000000 
-1.017210 1.525900 56.228951 54 98 82 2.000000 
-1.017030 1.527130 56.229080 55 95 86 2.000000 
-1.017430 1.524890 56.229961 54 95 80 2.000000 
-1.017400 1.524880 56.231041 50 84 71 2.000000 
-1.017290 1.524790 56.232079 36 75 67 2.000000 
-1.017220 1.525920 56.230019 48 89 74 2.000000 
-1.017390 1.527450 56.230228 60 100 86 2.000000 
-1.017460 1.526130 56.231171 45 80 68 2.000000 
-1.017770 1.526400 56.232319 44 82 71 2.000000 
-1.017500 1.527570 56.231339 40 66 56 2.000000 
-1.017090 1.527240 56.232300 44 74 62 2.000000 
-1.016570 1.527900 56.227989 40 80 63 2.000000 
-1.016490 1.527840 56.229069 43 83 78 2.000000 
-1.016720 1.529130 56.228161 40 81 67 2.000000 
-1.016500 1.530270 56.228222 37 78 66 2.000000 
-1.016530 1.529010 56.229198 42 83 75 2.000000 
-1.016180 1.530020 56.229221 42 78 61 2.000000 
-1.016460 1.531570 56.228352 41 71 50 2.000000 
-1.015890 1.532420 56.228371 27 47 32 2.000000 
-1.016510 1.531650 56.229462 42 74 55 2.000000 
-1.016770 1.528080 56.230221 46 90 87 2.000000 
-1.016830 1.529270 56.230350 45 88 80 2.000000 
-1.016260 1.530120 56.230331 39 78 63 2.000000 
-1.017340 1.528550 56.231400 33 60 48 2.000000 
-1.017240 1.529590 56.231491 41 83 71 2.000000 
-1.016650 1.530460 56.231522 46 87 70 2.000000 
-1.016540 1.531700 56.230541 46 76 61 2.000000 
-1.016490 1.531660 56.231609 49 81 63 2.000000 
-1.016220 1.532710 56.229519 27 52 35 2.000000 
-1.016360 1.532810 56.230629 33 58 42 2.000000 
-1.016360 1.532830 56.231709 38 64 48 2.000000 
-1.014210 1.520950 56.233379 59 103 88 2.000000 
-1.015460 1.521960 56.232590 55 104 89 2.000000 
-1.014880 1.520180 56.234470 20 41 30 2.000000 
-1.014210 1.520970 56.234459 34 62 52 2.000000 
-1.016400 1.524100 56.234009 58 104 92 2.000000 
-1.016370 1.522750 56.236038 23 37 31 2.000000 
-1.018020 1.522770 56.236301 18 33 22 2.000000 
